-25.131248474121094 -54.793716430664063 34.968948364257813 0 0 0
-26.631248474121094 -54.411552429199219 34.892227172851562 0 0 0
-26.631248474121094 -54.293716430664063 34.846542358398438 0 0 0
-26.131248474121094 -54.366897583007812 34.892227172851562 0 0 0
-26.131248474121094 -54.293716430664063 34.863571166992187 0 0 0
-26.631248474121094 -53.793716430664063 34.653671264648437 0 0 0
-26.131248474121094 -53.793716430664063 34.641510009765625 0 0 0
-25.631248474121094 -54.422378540039063 34.892227172851562 0 0 0
-25.631248474121094 -54.293716430664063 34.834701538085938 0 0 0
-25.131248474121094 -54.606834411621094 34.892227172851562 0 0 0
-25.131248474121094 -54.293716430664063 34.743377685546875 0 0 0
-25.631248474121094 -53.793716430664063 34.586074829101563 0 0 0
-25.131248474121094 -53.793716430664063 34.505813598632812 0 0 0
-28.631248474121094 -53.293716430664062 34.571548461914063 0 0 0
-28.131248474121094 -53.293716430664062 34.539962768554687 0 0 0
-27.631248474121094 -53.293716430664062 34.524932861328125 0 0 0
-27.131248474121094 -53.293716430664062 34.479736328125 0 0 0
-26.631248474121094 -53.293716430664062 34.43585205078125 0 0 0
-26.131248474121094 -53.293716430664062 34.39801025390625 0 0 0
-21.131240844726563 -53.800804138183594 34.392227172851562 0 0 0
-21.131240844726563 -53.793716430664063 34.389328002929688 0 0 0
-21.358497619628906 -53.793716430664063 34.392227172851562 0 0 0
-24.631248474121094 -53.573318481445313 34.392227172851562 0 0 0
-24.631248474121094 -53.293716430664062 34.272842407226563 0 0 0
-24.131248474121094 -53.477584838867187 34.392227172851562 0 0 0
-24.131248474121094 -53.293716430664062 34.307937622070313 0 0 0
-24.631248474121094 -52.793716430664062 34.065200805664062 0 0 0
-24.131248474121094 -52.793716430664062 34.08453369140625 0 0 0
-23.631248474121094 -53.35821533203125 34.392227172851562 0 0 0
-23.631248474121094 -53.293716430664062 34.36102294921875 0 0 0
-23.131248474121094 -53.369216918945313 34.392227172851562 0 0 0
-23.131248474121094 -53.293716430664062 34.3555908203125 0 0 0
-23.631248474121094 -52.793716430664062 34.12652587890625 0 0 0
-23.131248474121094 -52.793716430664062 34.1197509765625 0 0 0
-24.631248474121094 -52.378143310546875 33.892227172851563 0 0 0
-24.631248474121094 -52.293716430664062 33.85528564453125 0 0 0
-24.131248474121094 -52.350883483886719 33.892227172851563 0 0 0
-24.131248474121094 -52.293716430664062 33.86676025390625 0 0 0
-24.631248474121094 -51.793716430664063 33.6754150390625 0 0 0
-24.131248474121094 -51.793716430664063 33.69451904296875 0 0 0
-23.631248474121094 -52.299575805664063 33.892227172851563 0 0 0
-23.631248474121094 -52.293716430664062 33.889404296875 0 0 0
-23.131248474121094 -52.333847045898437 33.892227172851563 0 0 0
-23.131248474121094 -52.293716430664062 33.871749877929687 0 0 0
-23.631248474121094 -51.793716430664063 33.696441650390625 0 0 0
-23.131248474121094 -51.793716430664063 33.654220581054687 0 0 0
-22.631248474121094 -53.506912231445313 34.392227172851562 0 0 0
-22.631248474121094 -53.293716430664062 34.288864135742188 0 0 0
-22.131248474121094 -53.638870239257813 34.392227172851562 0 0 0
-22.131248474121094 -53.293716430664062 34.215652465820312 0 0 0
-22.631248474121094 -52.793716430664062 34.05181884765625 0 0 0
-22.131248474121094 -52.793716430664062 33.964111328125 0 0 0
-21.631248474121094 -53.751075744628906 34.392227172851562 0 0 0
-21.631248474121094 -53.293716430664062 34.165130615234375 0 0 0
-21.131240844726563 -53.293716430664062 34.167999267578125 0 0 0
-21.631248474121094 -52.793716430664062 33.915328979492188 0 0 0
-21.131240844726563 -52.793716430664062 33.938751220703125 0 0 0
-22.631248474121094 -52.464698791503906 33.892227172851563 0 0 0
-22.631248474121094 -52.293716430664062 33.808547973632813 0 0 0
-22.131248474121094 -52.631881713867188 33.892227172851563 0 0 0
-22.131248474121094 -52.293716430664062 33.7471923828125 0 0 0
-22.631248474121094 -51.793716430664063 33.593231201171875 0 0 0
-22.131248474121094 -51.793716430664063 33.569366455078125 0 0 0
-21.631248474121094 -52.737503051757813 33.892227172851563 0 0 0
-21.631248474121094 -52.293716430664062 33.715911865234375 0 0 0
-21.131240844726563 -52.678970336914062 33.892227172851563 0 0 0
-21.131240844726563 -52.293716430664062 33.73602294921875 0 0 0
-21.631248474121094 -51.793716430664063 33.560592651367188 0 0 0
-21.131240844726563 -51.793716430664063 33.562042236328125 0 0 0
-24.631248474121094 -55.293716430664063 35.129470825195313 0 0 0
-24.131248474121094 -55.293716430664063 35.153472900390625 0 0 0
-24.631248474121094 -54.793716430664063 34.920730590820313 0 0 0
-24.131248474121094 -54.793716430664063 34.939529418945312 0 0 0
-23.631248474121094 -55.73492431640625 35.392227172851563 0 0 0
-23.631248474121094 -55.293716430664063 35.212966918945313 0 0 0
-23.131248474121094 -55.638427734375 35.392227172851563 0 0 0
-23.131248474121094 -55.293716430664063 35.241348266601563 0 0 0
-23.631248474121094 -54.793716430664063 34.999069213867188 0 0 0
-23.131248474121094 -54.793716430664063 35.024261474609375 0 0 0
-24.631248474121094 -54.724494934082031 34.892227172851562 0 0 0
-24.631248474121094 -54.293716430664063 34.697509765625 0 0 0
-24.131248474121094 -54.668220520019531 34.892227172851562 0 0 0
-24.131248474121094 -54.293716430664063 34.737274169921875 0 0 0
-24.631248474121094 -53.793716430664063 34.479782104492188 0 0 0
-24.131248474121094 -53.793716430664063 34.5264892578125 0 0 0
-23.631248474121094 -54.501510620117188 34.892227172851562 0 0 0
-23.631248474121094 -54.293716430664063 34.806228637695313 0 0 0
-23.131248474121094 -54.45379638671875 34.892227172851562 0 0 0
-23.131248474121094 -54.293716430664063 34.8204345703125 0 0 0
-23.631248474121094 -53.793716430664063 34.589431762695313 0 0 0
-23.131248474121094 -53.793716430664063 34.587371826171875 0 0 0
-22.631248474121094 -55.644355773925781 35.392227172851563 0 0 0
-22.631248474121094 -55.293716430664063 35.211074829101563 0 0 0
-22.131248474121094 -55.78607177734375 35.392227172851563 0 0 0
-22.131248474121094 -55.293716430664063 35.14837646484375 0 0 0
-22.631248474121094 -54.793716430664063 34.977157592773437 0 0 0
-22.131248474121094 -54.793716430664063 34.932571411132812 0 0 0
-21.131240844726563 -54.921173095703125 34.892227172851562 0 0 0
-21.131240844726563 -54.793716430664063 34.838775634765625 0 0 0
-21.593772888183594 -54.793716430664063 34.892227172851562 0 0 0
-21.631248474121094 -55.293716430664063 35.097366333007812 0 0 0
-21.131240844726563 -55.293716430664063 35.0528564453125 0 0 0
-21.631248474121094 -54.793716430664063 34.897048950195312 0 0 0
-22.631248474121094 -54.58319091796875 34.892227172851562 0 0 0
-22.631248474121094 -54.293716430664063 34.761398315429687 0 0 0
-22.131248474121094 -54.690696716308594 34.892227172851562 0 0 0
-22.131248474121094 -54.293716430664063 34.714675903320313 0 0 0
-22.631248474121094 -53.793716430664063 34.521148681640625 0 0 0
-22.131248474121094 -53.793716430664063 34.46392822265625 0 0 0
-21.631248474121094 -54.782035827636719 34.892227172851562 0 0 0
-21.631248474121094 -54.293716430664063 34.661346435546875 0 0 0
-21.131240844726563 -54.293716430664063 34.607833862304688 0 0 0
-21.631248474121094 -53.793716430664063 34.411575317382812 0 0 0
-29.131248474121094 -64.841537475585938 39.392227172851563 0 0 0
-29.131248474121094 -64.793716430664063 39.366928100585937 0 0 0
-29.40875244140625 -64.793716430664063 39.392227172851563 0 0 0
-30.631248474121094 -63.793716430664063 39.0079345703125 0 0 0
-30.131248474121094 -64.293716430664063 39.180557250976563 0 0 0
-30.131248474121094 -63.793716430664063 38.96551513671875 0 0 0
-30.131248474121094 -64.722579956054687 39.392227172851563 0 0 0
-29.631248474121094 -64.759185791015625 39.392227172851563 0 0 0
-29.631248474121094 -64.293716430664063 39.149505615234375 0 0 0
-29.131248474121094 -64.293716430664063 39.115142822265625 0 0 0
-29.631248474121094 -63.793716430664063 38.93072509765625 0 0 0
-29.131248474121094 -63.793716430664063 38.898300170898438 0 0 0
-30.131248474121094 -64.793716430664063 39.423782348632813 0 0 0
-29.631248474121094 -65.293716430664062 39.656753540039063 0 0 0
-29.631248474121094 -64.793716430664063 39.408645629882812 0 0 0
-29.131248474121094 -65.293716430664062 39.599227905273438 0 0 0
-30.131248474121094 -62.428741455078125 38.392227172851562 0 0 0
-29.631248474121094 -62.517745971679687 38.392227172851562 0 0 0
-29.631248474121094 -62.293716430664063 38.2958984375 0 0 0
-30.131248474121094 -62.293716430664063 38.3292236328125 0 0 0
-29.131248474121094 -62.536125183105469 38.392227172851562 0 0 0
-29.131248474121094 -62.293716430664063 38.296600341796875 0 0 0
-30.131248474121094 -61.793716430664062 38.119827270507813 0 0 0
-29.631248474121094 -61.793716430664062 38.090927124023438 0 0 0
-29.131248474121094 -61.793716430664062 38.091583251953125 0 0 0
-32.631248474121094 -59.807769775390625 37.392227172851563 0 0 0
-32.631248474121094 -59.793716430664063 37.387298583984375 0 0 0
-32.701622009277344 -59.793716430664063 37.392227172851563 0 0 0
-32.131248474121094 -59.879631042480469 37.392227172851563 0 0 0
-32.131248474121094 -59.793716430664063 37.361953735351563 0 0 0
-31.631248474121094 -59.884765625 37.392227172851563 0 0 0
-31.631248474121094 -59.793716430664063 37.36224365234375 0 0 0
-31.131248474121094 -59.906494140625 37.392227172851563 0 0 0
-31.131248474121094 -59.793716430664063 37.353302001953125 0 0 0
-32.631248474121094 -60.986892700195313 37.892227172851563 0 0 0
-32.131248474121094 -61.000106811523438 37.892227172851563 0 0 0
-32.131248474121094 -60.793716430664062 37.790756225585938 0 0 0
-32.631248474121094 -60.793716430664062 37.808822631835938 0 0 0
-32.631248474121094 -61.293716430664062 38.02984619140625 0 0 0
-32.131248474121094 -61.293716430664062 38.040130615234375 0 0 0
-31.631248474121094 -61.041641235351563 37.892227172851563 0 0 0
-31.631248474121094 -60.793716430664062 37.772674560546875 0 0 0
-31.131248474121094 -61.107063293457031 37.892227172851563 0 0 0
-31.131248474121094 -60.793716430664062 37.752288818359375 0 0 0
-32.131248474121094 -61.793716430664062 38.270584106445313 0 0 0
-31.631248474121094 -61.793716430664062 38.252273559570313 0 0 0
-31.631248474121094 -61.293716430664062 38.021728515625 0 0 0
-31.131248474121094 -61.293716430664062 37.982406616210938 0 0 0
-32.631248474121094 -60.293716430664063 37.598388671875 0 0 0
-32.131248474121094 -60.293716430664063 37.566574096679688 0 0 0
-31.631248474121094 -60.293716430664063 37.551315307617187 0 0 0
-31.131248474121094 -60.293716430664063 37.539108276367188 0 0 0
-30.631248474121094 -59.984100341796875 37.392227172851563 0 0 0
-30.631248474121094 -59.793716430664063 37.319229125976563 0 0 0
-30.131248474121094 -60.003494262695312 37.392227172851563 0 0 0
-30.131248474121094 -59.793716430664063 37.299041748046875 0 0 0
-29.631248474121094 -60.015449523925781 37.392227172851563 0 0 0
-29.631248474121094 -59.793716430664063 37.281143188476562 0 0 0
-29.131248474121094 -60.122268676757813 37.392227172851563 0 0 0
-29.131248474121094 -59.793716430664063 37.236038208007812 0 0 0
-30.631248474121094 -61.174179077148438 37.892227172851563 0 0 0
-30.631248474121094 -60.793716430664062 37.7276611328125 0 0 0
-30.131248474121094 -61.213653564453125 37.892227172851563 0 0 0
-30.131248474121094 -60.793716430664062 37.734909057617188 0 0 0
-30.631248474121094 -61.293716430664062 37.948699951171875 0 0 0
-30.131248474121094 -61.293716430664062 37.925689697265625 0 0 0
-29.131248474121094 -61.300888061523438 37.892227172851563 0 0 0
-29.131248474121094 -61.293716430664062 37.889083862304688 0 0 0
-29.192329406738281 -61.293716430664062 37.892227172851563 0 0 0
-29.631248474121094 -61.240226745605469 37.892227172851563 0 0 0
-29.631248474121094 -60.793716430664062 37.751129150390625 0 0 0
-29.131248474121094 -60.793716430664062 37.701309204101563 0 0 0
-29.631248474121094 -61.293716430664062 37.91064453125 0 0 0
-30.631248474121094 -60.293716430664063 37.514785766601562 0 0 0
-30.131248474121094 -60.293716430664063 37.5225830078125 0 0 0
-29.631248474121094 -60.293716430664063 37.533935546875 0 0 0
-29.131248474121094 -60.293716430664063 37.477493286132813 0 0 0
-31.131248474121094 -63.404319763183594 38.892227172851562 0 0 0
-30.631248474121094 -63.49273681640625 38.892227172851562 0 0 0
-30.631248474121094 -63.293716430664063 38.8070068359375 0 0 0
-31.131248474121094 -63.293716430664063 38.837936401367188 0 0 0
-30.131248474121094 -63.584709167480469 38.892227172851562 0 0 0
-30.131248474121094 -63.293716430664063 38.77435302734375 0 0 0
-31.131248474121094 -62.793716430664063 38.599273681640625 0 0 0
-30.631248474121094 -62.793716430664063 38.582977294921875 0 0 0
-30.131248474121094 -62.793716430664063 38.551040649414063 0 0 0
-31.131248474121094 -63.793716430664063 39.064239501953125 0 0 0
-29.631248474121094 -63.679046630859375 38.892227172851562 0 0 0
-29.631248474121094 -63.293716430664063 38.73345947265625 0 0 0
-29.131248474121094 -63.774665832519531 38.892227172851562 0 0 0
-29.131248474121094 -63.293716430664063 38.697921752929687 0 0 0
-29.631248474121094 -62.793716430664063 38.513442993164063 0 0 0
-29.131248474121094 -62.793716430664063 38.49749755859375 0 0 0
-28.131248474121094 -67.298416137695312 40.392227172851563 0 0 0
-28.131248474121094 -67.293716430664063 40.390335083007813 0 0 0
-28.184364318847656 -67.293716430664063 40.392227172851563 0 0 0
-28.131248474121094 -66.793716430664063 40.190689086914063 0 0 0
-27.631248474121094 -67.354568481445313 40.392227172851563 0 0 0
-27.631248474121094 -67.293716430664063 40.366943359375 0 0 0
-27.131248474121094 -67.431289672851562 40.392227172851563 0 0 0
-27.131248474121094 -67.293716430664063 40.331649780273438 0 0 0
-27.631248474121094 -66.793716430664063 40.168228149414063 0 0 0
-27.131248474121094 -66.793716430664063 40.128463745117188 0 0 0
-26.631248474121094 -67.486602783203125 40.392227172851563 0 0 0
-26.631248474121094 -67.293716430664063 40.3038330078125 0 0 0
-26.131248474121094 -67.527359008789063 40.392227172851563 0 0 0
-26.131248474121094 -67.293716430664063 40.283340454101563 0 0 0
-26.631248474121094 -66.793716430664063 40.097442626953125 0 0 0
-26.131248474121094 -66.793716430664063 40.075729370117188 0 0 0
-25.631248474121094 -67.574615478515625 40.392227172851563 0 0 0
-25.631248474121094 -67.293716430664063 40.26544189453125 0 0 0
-25.131248474121094 -67.582389831542969 40.392227172851563 0 0 0
-25.131248474121094 -67.293716430664063 40.2535400390625 0 0 0
-25.631248474121094 -66.793716430664063 40.056686401367188 0 0 0
-25.131248474121094 -66.793716430664063 40.03143310546875 0 0 0
-26.631248474121094 -66.313430786132813 39.892227172851563 0 0 0
-26.631248474121094 -66.293716430664063 39.883087158203125 0 0 0
-26.954292297363281 -66.293716430664063 39.892227172851563 0 0 0
-26.131248474121094 -66.340797424316406 39.892227172851563 0 0 0
-26.131248474121094 -66.293716430664063 39.871261596679688 0 0 0
-26.631248474121094 -65.793716430664062 39.657119750976562 0 0 0
-27.131248474121094 -65.793716430664062 39.675704956054688 0 0 0
-26.131248474121094 -65.793716430664062 39.635833740234375 0 0 0
-25.631248474121094 -66.391265869140625 39.892227172851563 0 0 0
-25.631248474121094 -66.293716430664063 39.848861694335938 0 0 0
-25.131248474121094 -66.467582702636719 39.892227172851563 0 0 0
-25.131248474121094 -66.293716430664063 39.814010620117188 0 0 0
-25.631248474121094 -65.793716430664062 39.607040405273438 0 0 0
-25.131248474121094 -65.793716430664062 39.579757690429688 0 0 0
-28.631248474121094 -64.92828369140625 39.392227172851563 0 0 0
-28.631248474121094 -64.793716430664063 39.327667236328125 0 0 0
-28.131248474121094 -64.992332458496094 39.392227172851563 0 0 0
-28.131248474121094 -64.793716430664063 39.3035888671875 0 0 0
-27.631248474121094 -65.036697387695312 39.392227172851563 0 0 0
-27.631248474121094 -64.793716430664063 39.2969970703125 0 0 0
-27.131248474121094 -65.090927124023438 39.392227172851563 0 0 0
-27.131248474121094 -64.793716430664063 39.282241821289063 0 0 0
-28.631248474121094 -63.842430114746094 38.892227172851562 0 0 0
-28.631248474121094 -63.793716430664063 38.874771118164062 0 0 0
-29.014823913574219 -63.793716430664063 38.892227172851562 0 0 0
-28.131248474121094 -63.873947143554688 38.892227172851562 0 0 0
-28.131248474121094 -63.793716430664063 38.861480712890625 0 0 0
-28.631248474121094 -64.293716430664063 39.084716796875 0 0 0
-28.131248474121094 -64.293716430664063 39.074386596679688 0 0 0
-27.631248474121094 -63.897621154785156 38.892227172851562 0 0 0
-27.631248474121094 -63.793716430664063 38.848220825195312 0 0 0
-27.131248474121094 -63.933525085449219 38.892227172851562 0 0 0
-27.131248474121094 -63.793716430664063 38.829299926757813 0 0 0
-27.631248474121094 -64.293716430664063 39.076156616210937 0 0 0
-27.131248474121094 -64.293716430664063 39.063217163085937 0 0 0
-28.631248474121094 -65.293716430664062 39.55242919921875 0 0 0
-28.131248474121094 -65.293716430664062 39.529037475585938 0 0 0
-27.631248474121094 -65.793716430664062 39.723159790039062 0 0 0
-27.631248474121094 -65.293716430664062 39.50115966796875 0 0 0
-27.131248474121094 -65.293716430664062 39.474441528320312 0 0 0
-26.631248474121094 -65.182418823242187 39.392227172851563 0 0 0
-26.631248474121094 -64.793716430664063 39.2381591796875 0 0 0
-26.131248474121094 -65.270668029785156 39.392227172851563 0 0 0
-26.131248474121094 -64.793716430664063 39.191696166992188 0 0 0
-25.631248474121094 -65.336021423339844 39.392227172851563 0 0 0
-25.631248474121094 -65.293716430664062 39.371337890625 0 0 0
-25.967308044433594 -65.293716430664062 39.392227172851563 0 0 0
-25.131248474121094 -65.382926940917969 39.392227172851563 0 0 0
-25.131248474121094 -65.293716430664062 39.348068237304688 0 0 0
-25.631248474121094 -64.793716430664063 39.162185668945313 0 0 0
-25.131248474121094 -64.793716430664063 39.137283325195312 0 0 0
-26.631248474121094 -63.98822021484375 38.892227172851562 0 0 0
-26.631248474121094 -63.793716430664063 38.805221557617188 0 0 0
-26.131248474121094 -64.0689697265625 38.892227172851562 0 0 0
-26.131248474121094 -63.793716430664063 38.772918701171875 0 0 0
-26.631248474121094 -64.293716430664063 39.029678344726563 0 0 0
-26.131248474121094 -64.293716430664063 38.989425659179688 0 0 0
-25.631248474121094 -64.138137817382812 38.892227172851562 0 0 0
-25.631248474121094 -63.793716430664063 38.748199462890625 0 0 0
-25.131248474121094 -64.181137084960938 38.892227172851562 0 0 0
-25.131248474121094 -63.793716430664063 38.7381591796875 0 0 0
-25.631248474121094 -64.293716430664063 38.959426879882813 0 0 0
-25.131248474121094 -64.293716430664063 38.940322875976563 0 0 0
-26.631248474121094 -65.293716430664062 39.440689086914063 0 0 0
-26.131248474121094 -65.293716430664062 39.402740478515625 0 0 0
-24.631248474121094 -67.613861083984375 40.392227172851563 0 0 0
-24.631248474121094 -67.293716430664063 40.227264404296875 0 0 0
-24.131248474121094 -67.71514892578125 40.392227172851563 0 0 0
-24.131248474121094 -67.293716430664063 40.186172485351562 0 0 0
-24.631248474121094 -66.793716430664063 39.992706298828125 0 0 0
-24.131248474121094 -66.793716430664063 39.9534912109375 0 0 0
-23.631248474121094 -67.293716430664063 40.156845092773437 0 0 0
-23.131248474121094 -67.293716430664063 40.126739501953125 0 0 0
-23.631248474121094 -66.793716430664063 39.931625366210938 0 0 0
-23.131248474121094 -66.793716430664063 39.9095458984375 0 0 0
-24.631248474121094 -66.564056396484375 39.892227172851563 0 0 0
-24.631248474121094 -66.293716430664063 39.77093505859375 0 0 0
-24.131248474121094 -66.646965026855469 39.892227172851563 0 0 0
-24.131248474121094 -66.293716430664063 39.737396240234375 0 0 0
-24.631248474121094 -65.793716430664062 39.551376342773438 0 0 0
-24.131248474121094 -65.793716430664062 39.525192260742187 0 0 0
-23.631248474121094 -66.695182800292969 39.892227172851563 0 0 0
-23.631248474121094 -66.293716430664063 39.715591430664062 0 0 0
-23.131248474121094 -66.750923156738281 39.892227172851563 0 0 0
-23.131248474121094 -66.293716430664063 39.688308715820312 0 0 0
-23.631248474121094 -65.793716430664062 39.501327514648438 0 0 0
-23.131248474121094 -65.793716430664062 39.472305297851562 0 0 0
-22.631248474121094 -66.841712951660156 39.892227172851563 0 0 0
-22.631248474121094 -66.793716430664063 39.871414184570312 0 0 0
-22.905921936035156 -66.793716430664063 39.892227172851563 0 0 0
-22.131248474121094 -66.895736694335938 39.892227172851563 0 0 0
-22.131248474121094 -66.793716430664063 39.845123291015625 0 0 0
-22.631248474121094 -67.293716430664063 40.092300415039063 0 0 0
-22.131248474121094 -67.293716430664063 40.072296142578125 0 0 0
-21.631248474121094 -66.885330200195313 39.892227172851563 0 0 0
-21.631248474121094 -66.793716430664063 39.848892211914063 0 0 0
-21.131240844726563 -66.902511596679688 39.892227172851563 0 0 0
-21.131240844726563 -66.793716430664063 39.842803955078125 0 0 0
-21.631248474121094 -67.293716430664063 40.075714111328125 0 0 0
-21.131240844726563 -67.293716430664063 40.068222045898438 0 0 0
-22.631248474121094 -66.293716430664063 39.646591186523438 0 0 0
-22.131248474121094 -66.293716430664063 39.61492919921875 0 0 0
-22.631248474121094 -65.793716430664062 39.437957763671875 0 0 0
-22.131248474121094 -65.793716430664062 39.413711547851563 0 0 0
-21.631248474121094 -66.293716430664063 39.611572265625 0 0 0
-21.131240844726563 -66.293716430664063 39.610122680664063 0 0 0
-21.631248474121094 -65.793716430664062 39.411529541015625 0 0 0
-21.131240844726563 -65.793716430664062 39.40496826171875 0 0 0
-24.631248474121094 -65.427284240722656 39.392227172851563 0 0 0
-24.631248474121094 -65.293716430664062 39.328811645507813 0 0 0
-24.131248474121094 -65.476890563964844 39.392227172851563 0 0 0
-24.131248474121094 -65.293716430664062 39.308975219726563 0 0 0
-24.631248474121094 -64.793716430664063 39.1141357421875 0 0 0
-24.131248474121094 -64.793716430664063 39.088714599609375 0 0 0
-23.631248474121094 -65.527275085449219 39.392227172851563 0 0 0
-23.631248474121094 -65.293716430664062 39.287765502929687 0 0 0
-23.131248474121094 -65.594039916992188 39.392227172851563 0 0 0
-23.131248474121094 -65.293716430664062 39.260208129882812 0 0 0
-23.631248474121094 -64.793716430664063 39.056915283203125 0 0 0
-23.131248474121094 -64.793716430664063 39.024581909179688 0 0 0
-24.131248474121094 -64.324638366699219 38.892227172851562 0 0 0
-24.131248474121094 -64.293716430664063 38.878570556640625 0 0 0
-24.299751281738281 -64.293716430664063 38.892227172851562 0 0 0
-24.631248474121094 -64.238777160644531 38.892227172851562 0 0 0
-24.631248474121094 -63.793716430664063 38.713882446289063 0 0 0
-24.131248474121094 -63.793716430664063 38.664337158203125 0 0 0
-24.631248474121094 -64.293716430664063 38.916351318359375 0 0 0
-23.631248474121094 -64.418106079101563 38.892227172851562 0 0 0
-23.631248474121094 -64.293716430664063 38.832473754882813 0 0 0
-23.131248474121094 -64.494491577148438 38.892227172851562 0 0 0
-23.131248474121094 -64.293716430664063 38.794784545898438 0 0 0
-23.631248474121094 -63.793716430664063 38.612167358398438 0 0 0
-23.131248474121094 -63.793716430664063 38.579055786132812 0 0 0
-22.631248474121094 -65.676277160644531 39.392227172851563 0 0 0
-22.631248474121094 -65.293716430664062 39.231552124023438 0 0 0
-22.131248474121094 -65.736137390136719 39.392227172851563 0 0 0
-22.131248474121094 -65.293716430664062 39.210189819335938 0 0 0
-22.631248474121094 -64.793716430664063 39.0030517578125 0 0 0
-22.131248474121094 -64.793716430664063 38.985748291015625 0 0 0
-21.631248474121094 -65.743316650390625 39.392227172851563 0 0 0
-21.631248474121094 -65.293716430664062 39.195755004882813 0 0 0
-21.131240844726563 -65.762420654296875 39.392227172851563 0 0 0
-21.131240844726563 -65.293716430664062 39.176559448242188 0 0 0
-21.631248474121094 -64.793716430664063 38.966262817382813 0 0 0
-21.131240844726563 -64.793716430664063 38.946762084960938 0 0 0
-22.631248474121094 -64.545310974121094 38.892227172851562 0 0 0
-22.631248474121094 -64.293716430664063 38.769912719726563 0 0 0
-22.131248474121094 -64.588844299316406 38.892227172851562 0 0 0
-22.131248474121094 -64.293716430664063 38.745742797851562 0 0 0
-22.631248474121094 -63.793716430664063 38.555007934570312 0 0 0
-22.131248474121094 -63.793716430664063 38.5291748046875 0 0 0
-21.631248474121094 -64.629150390625 38.892227172851562 0 0 0
-21.631248474121094 -64.293716430664063 38.729202270507812 0 0 0
-21.131240844726563 -64.661575317382813 38.892227172851562 0 0 0
-21.131240844726563 -64.293716430664063 38.728378295898438 0 0 0
-21.631248474121094 -63.793716430664063 38.513214111328125 0 0 0
-21.131240844726563 -63.793716430664063 38.516891479492188 0 0 0
-28.631248474121094 -62.537826538085938 38.392227172851562 0 0 0
-28.631248474121094 -62.293716430664063 38.294769287109375 0 0 0
-28.131248474121094 -62.600601196289063 38.392227172851562 0 0 0
-28.131248474121094 -62.293716430664063 38.259613037109375 0 0 0
-28.631248474121094 -61.793716430664062 38.076416015625 0 0 0
-28.131248474121094 -61.793716430664062 38.026611328125 0 0 0
-27.631248474121094 -62.683708190917969 38.392227172851562 0 0 0
-27.631248474121094 -62.293716430664063 38.223297119140625 0 0 0
-27.131248474121094 -62.774169921875 38.392227172851562 0 0 0
-27.131248474121094 -62.293716430664063 38.19146728515625 0 0 0
-27.631248474121094 -61.793716430664062 37.9931640625 0 0 0
-27.131248474121094 -61.793716430664062 37.970748901367188 0 0 0
-26.631248474121094 -62.877182006835937 38.392227172851562 0 0 0
-26.631248474121094 -62.793716430664063 38.361770629882813 0 0 0
-27.031219482421875 -62.793716430664063 38.392227172851562 0 0 0
-26.131248474121094 -62.955368041992188 38.392227172851562 0 0 0
-26.131248474121094 -62.793716430664063 38.331375122070312 0 0 0
-25.631248474121094 -62.997711181640625 38.392227172851562 0 0 0
-25.631248474121094 -62.793716430664063 38.312881469726563 0 0 0
-25.131248474121094 -63.012351989746094 38.392227172851562 0 0 0
-25.131248474121094 -62.793716430664063 38.304672241210937 0 0 0
-26.631248474121094 -62.293716430664063 38.165740966796875 0 0 0
-26.131248474121094 -62.293716430664063 38.148101806640625 0 0 0
-26.631248474121094 -61.793716430664062 37.957504272460938 0 0 0
-26.131248474121094 -61.793716430664062 37.948623657226563 0 0 0
-25.131248474121094 -61.830863952636719 37.892227172851563 0 0 0
-25.131248474121094 -61.793716430664062 37.877716064453125 0 0 0
-25.350555419921875 -61.793716430664062 37.892227172851563 0 0 0
-25.631248474121094 -62.293716430664063 38.12030029296875 0 0 0
-25.131248474121094 -62.293716430664063 38.096649169921875 0 0 0
-25.631248474121094 -61.793716430664062 37.914398193359375 0 0 0
-28.131248474121094 -60.309097290039063 37.392227172851563 0 0 0
-28.131248474121094 -60.293716430664063 37.385940551757813 0 0 0
-28.245628356933594 -60.293716430664063 37.392227172851563 0 0 0
-28.631248474121094 -60.237403869628906 37.392227172851563 0 0 0
-28.631248474121094 -59.793716430664063 37.198028564453125 0 0 0
-28.131248474121094 -59.793716430664063 37.176193237304687 0 0 0
-27.631248474121094 -60.379806518554687 37.392227172851563 0 0 0
-27.631248474121094 -60.293716430664063 37.358642578125 0 0 0
-27.131248474121094 -60.408302307128906 37.392227172851563 0 0 0
-27.131248474121094 -60.293716430664063 37.35101318359375 0 0 0
-27.631248474121094 -59.793716430664063 37.164047241210938 0 0 0
-27.131248474121094 -59.793716430664063 37.17083740234375 0 0 0
-28.631248474121094 -61.378791809082031 37.892227172851563 0 0 0
-28.631248474121094 -61.293716430664062 37.850540161132812 0 0 0
-28.131248474121094 -61.476600646972656 37.892227172851563 0 0 0
-28.131248474121094 -61.293716430664062 37.805801391601562 0 0 0
-28.631248474121094 -60.793716430664062 37.636520385742187 0 0 0
-28.131248474121094 -60.793716430664062 37.595245361328125 0 0 0
-27.631248474121094 -61.549140930175781 37.892227172851563 0 0 0
-27.631248474121094 -61.293716430664062 37.774169921875 0 0 0
-27.131248474121094 -61.604499816894531 37.892227172851563 0 0 0
-27.131248474121094 -61.293716430664062 37.749053955078125 0 0 0
-27.631248474121094 -60.793716430664062 37.561203002929688 0 0 0
-27.131248474121094 -60.793716430664062 37.536453247070313 0 0 0
-28.631248474121094 -60.293716430664063 37.418869018554688 0 0 0
-26.631248474121094 -60.44195556640625 37.392227172851563 0 0 0
-26.631248474121094 -60.293716430664063 37.342208862304688 0 0 0
-26.131248474121094 -60.544502258300781 37.392227172851563 0 0 0
-26.131248474121094 -60.293716430664063 37.297515869140625 0 0 0
-26.631248474121094 -59.793716430664063 37.159255981445312 0 0 0
-26.131248474121094 -59.793716430664063 37.102569580078125 0 0 0
-25.631248474121094 -60.626914978027344 37.392227172851563 0 0 0
-25.631248474121094 -60.293716430664063 37.25238037109375 0 0 0
-25.131248474121094 -60.683929443359375 37.392227172851563 0 0 0
-25.131248474121094 -60.293716430664063 37.220230102539063 0 0 0
-25.631248474121094 -59.793716430664063 37.050460815429688 0 0 0
-25.131248474121094 -59.793716430664063 37.010269165039063 0 0 0
-26.631248474121094 -61.639739990234375 37.892227172851563 0 0 0
-26.631248474121094 -61.293716430664062 37.729354858398438 0 0 0
-26.131248474121094 -61.665084838867188 37.892227172851563 0 0 0
-26.131248474121094 -61.293716430664062 37.712265014648438 0 0 0
-26.631248474121094 -60.793716430664062 37.513473510742188 0 0 0
-26.131248474121094 -60.793716430664062 37.485443115234375 0 0 0
-25.631248474121094 -61.741111755371094 37.892227172851563 0 0 0
-25.631248474121094 -61.293716430664062 37.68682861328125 0 0 0
-25.131248474121094 -61.293716430664062 37.661590576171875 0 0 0
-25.631248474121094 -60.793716430664062 37.460037231445313 0 0 0
-25.131248474121094 -60.793716430664062 37.438629150390625 0 0 0
-28.631248474121094 -63.293716430664063 38.678359985351563 0 0 0
-28.131248474121094 -63.293716430664063 38.663223266601563 0 0 0
-28.631248474121094 -62.793716430664063 38.490432739257813 0 0 0
-28.131248474121094 -62.793716430664063 38.468597412109375 0 0 0
-27.631248474121094 -63.293716430664063 38.6416015625 0 0 0
-27.131248474121094 -63.293716430664063 38.610382080078125 0 0 0
-27.631248474121094 -62.793716430664063 38.436676025390625 0 0 0
-27.131248474121094 -62.793716430664063 38.399917602539063 0 0 0
-26.631248474121094 -63.293716430664063 38.5731201171875 0 0 0
-26.131248474121094 -63.293716430664063 38.538681030273438 0 0 0
-25.631248474121094 -63.293716430664063 38.520248413085937 0 0 0
-25.131248474121094 -63.293716430664063 38.51617431640625 0 0 0
-24.631248474121094 -63.057022094726563 38.392227172851562 0 0 0
-24.631248474121094 -62.793716430664063 38.281570434570313 0 0 0
-24.131248474121094 -63.153892517089844 38.392227172851562 0 0 0
-24.131248474121094 -62.793716430664063 38.236007690429687 0 0 0
-23.131248474121094 -63.312179565429688 38.392227172851562 0 0 0
-23.131248474121094 -63.293716430664063 38.384613037109375 0 0 0
-23.31097412109375 -63.293716430664063 38.392227172851562 0 0 0
-23.631248474121094 -63.249351501464844 38.392227172851562 0 0 0
-23.631248474121094 -62.793716430664063 38.200119018554688 0 0 0
-23.131248474121094 -62.793716430664063 38.1805419921875 0 0 0
-24.631248474121094 -61.921707153320312 37.892227172851563 0 0 0
-24.631248474121094 -61.793716430664062 37.840850830078125 0 0 0
-24.131248474121094 -62.031890869140625 37.892227172851563 0 0 0
-24.131248474121094 -61.793716430664062 37.796401977539063 0 0 0
-24.631248474121094 -62.293716430664063 38.062454223632812 0 0 0
-24.131248474121094 -62.293716430664063 38.010879516601563 0 0 0
-23.631248474121094 -62.11181640625 37.892227172851563 0 0 0
-23.631248474121094 -61.793716430664062 37.760971069335938 0 0 0
-23.131248474121094 -62.164352416992188 37.892227172851563 0 0 0
-23.131248474121094 -61.793716430664062 37.73529052734375 0 0 0
-23.631248474121094 -62.293716430664063 37.974273681640625 0 0 0
-23.131248474121094 -62.293716430664063 37.951980590820313 0 0 0
-22.631248474121094 -63.367103576660156 38.392227172851562 0 0 0
-22.631248474121094 -63.293716430664063 38.362442016601563 0 0 0
-22.131248474121094 -63.420028686523438 38.392227172851562 0 0 0
-22.131248474121094 -63.293716430664063 38.342483520507812 0 0 0
-22.631248474121094 -62.793716430664063 38.160797119140625 0 0 0
-22.131248474121094 -62.793716430664063 38.141387939453125 0 0 0
-21.631248474121094 -63.464004516601563 38.392227172851562 0 0 0
-21.631248474121094 -63.293716430664063 38.323638916015625 0 0 0
-21.131240844726563 -63.472389221191406 38.392227172851562 0 0 0
-21.131240844726563 -63.293716430664063 38.31524658203125 0 0 0
-21.631248474121094 -62.793716430664063 38.123062133789063 0 0 0
-21.131240844726563 -62.793716430664063 38.118240356445313 0 0 0
-22.631248474121094 -62.192977905273438 37.892227172851563 0 0 0
-22.631248474121094 -61.793716430664062 37.733673095703125 0 0 0
-22.131248474121094 -62.203475952148438 37.892227172851563 0 0 0
-22.131248474121094 -61.793716430664062 37.7392578125 0 0 0
-22.631248474121094 -62.293716430664063 37.937118530273437 0 0 0
-22.131248474121094 -62.293716430664063 37.929290771484375 0 0 0
-21.631248474121094 -62.234169006347656 37.892227172851563 0 0 0
-21.631248474121094 -61.793716430664062 37.715164184570313 0 0 0
-21.131240844726563 -62.245429992675781 37.892227172851563 0 0 0
-21.131240844726563 -61.793716430664062 37.689163208007812 0 0 0
-21.631248474121094 -62.293716430664063 37.916839599609375 0 0 0
-21.131240844726563 -62.293716430664063 37.91387939453125 0 0 0
-24.131248474121094 -60.824867248535156 37.392227172851563 0 0 0
-24.131248474121094 -60.793716430664062 37.378555297851562 0 0 0
-24.354499816894531 -60.793716430664062 37.392227172851563 0 0 0
-23.631248474121094 -60.889671325683594 37.392227172851563 0 0 0
-23.631248474121094 -60.793716430664062 37.352127075195313 0 0 0
-23.131248474121094 -60.9503173828125 37.392227172851563 0 0 0
-23.131248474121094 -60.793716430664062 37.328292846679687 0 0 0
-24.631248474121094 -60.754104614257813 37.392227172851563 0 0 0
-24.631248474121094 -60.293716430664063 37.182769775390625 0 0 0
-24.131248474121094 -60.293716430664063 37.151809692382813 0 0 0
-24.631248474121094 -59.793716430664063 36.968292236328125 0 0 0
-24.131248474121094 -59.793716430664063 36.9364013671875 0 0 0
-23.131248474121094 -59.812812805175781 36.892227172851562 0 0 0
-23.131248474121094 -59.793716430664063 36.88433837890625 0 0 0
-23.335128784179688 -59.793716430664063 36.892227172851562 0 0 0
-23.631248474121094 -60.293716430664063 37.12664794921875 0 0 0
-23.131248474121094 -60.293716430664063 37.106857299804687 0 0 0
-23.631248474121094 -59.793716430664063 36.907684326171875 0 0 0
-24.631248474121094 -61.293716430664062 37.630462646484375 0 0 0
-24.131248474121094 -61.293716430664062 37.590866088867188 0 0 0
-24.631248474121094 -60.793716430664062 37.40972900390625 0 0 0
-23.631248474121094 -61.293716430664062 37.556320190429687 0 0 0
-23.131248474121094 -61.293716430664062 37.530853271484375 0 0 0
-22.631248474121094 -60.983665466308594 37.392227172851563 0 0 0
-22.631248474121094 -60.793716430664062 37.310577392578125 0 0 0
-22.131248474121094 -61.005882263183594 37.392227172851563 0 0 0
-22.131248474121094 -60.793716430664062 37.2967529296875 0 0 0
-21.631248474121094 -61.055488586425781 37.392227172851563 0 0 0
-21.631248474121094 -60.793716430664062 37.28106689453125 0 0 0
-21.131240844726563 -61.117515563964844 37.392227172851563 0 0 0
-21.131240844726563 -60.793716430664062 37.260543823242187 0 0 0
-22.631248474121094 -59.843063354492188 36.892227172851562 0 0 0
-22.631248474121094 -59.793716430664063 36.871826171875 0 0 0
-22.131248474121094 -59.853317260742188 36.892227172851562 0 0 0
-22.131248474121094 -59.793716430664063 36.869384765625 0 0 0
-22.631248474121094 -60.293716430664063 37.094467163085937 0 0 0
-22.131248474121094 -60.293716430664063 37.082550048828125 0 0 0
-21.631248474121094 -59.831329345703125 36.892227172851562 0 0 0
-21.631248474121094 -59.793716430664063 36.879287719726563 0 0 0
-21.131240844726563 -59.852676391601563 36.892227172851562 0 0 0
-21.131240844726563 -59.793716430664063 36.872772216796875 0 0 0
-21.631248474121094 -60.293716430664063 37.075607299804688 0 0 0
-21.131240844726563 -60.293716430664063 37.0587158203125 0 0 0
-22.631248474121094 -61.293716430664062 37.526657104492187 0 0 0
-22.131248474121094 -61.293716430664062 37.525619506835938 0 0 0
-21.631248474121094 -61.293716430664062 37.498626708984375 0 0 0
-21.131240844726563 -61.293716430664062 37.46697998046875 0 0 0
-24.631248474121094 -63.293716430664063 38.497695922851562 0 0 0
-24.131248474121094 -63.293716430664063 38.4541015625 0 0 0
-23.631248474121094 -63.293716430664063 38.411544799804688 0 0 0
-33.631248474121094 -58.400779724121094 36.892227172851562 0 0 0
-33.131248474121094 -58.5341796875 36.892227172851562 0 0 0
-33.131248474121094 -58.293716430664063 36.786041259765625 0 0 0
-33.631248474121094 -58.293716430664063 36.847122192382812 0 0 0
-33.631248474121094 -57.793716430664062 36.654037475585938 0 0 0
-33.131248474121094 -57.793716430664062 36.599227905273438 0 0 0
-33.131248474121094 -58.793716430664063 36.989501953125 0 0 0
-34.631248474121094 -57.293716430664062 36.53179931640625 0 0 0
-34.131248474121094 -57.293716430664062 36.472991943359375 0 0 0
-33.631248474121094 -57.293716430664062 36.41937255859375 0 0 0
-33.131248474121094 -57.293716430664062 36.400070190429688 0 0 0
-32.631248474121094 -59.293716430664063 37.17041015625 0 0 0
-32.131248474121094 -59.293716430664063 37.164093017578125 0 0 0
-33.131248474121094 -59.293716430664063 37.211578369140625 0 0 0
-32.631248474121094 -58.793716430664063 36.956878662109375 0 0 0
-32.131248474121094 -58.793716430664063 36.9520263671875 0 0 0
-31.631248474121094 -59.293716430664063 37.173233032226562 0 0 0
-31.131248474121094 -59.293716430664063 37.149993896484375 0 0 0
-31.631248474121094 -58.793716430664063 36.9468994140625 0 0 0
-31.131248474121094 -58.793716430664063 36.915878295898437 0 0 0
-32.631248474121094 -58.60821533203125 36.892227172851562 0 0 0
-32.631248474121094 -58.293716430664063 36.76318359375 0 0 0
-32.131248474121094 -58.633010864257813 36.892227172851562 0 0 0
-32.131248474121094 -58.293716430664063 36.748031616210937 0 0 0
-32.631248474121094 -57.793716430664062 36.58837890625 0 0 0
-32.131248474121094 -57.793716430664062 36.562210083007812 0 0 0
-31.631248474121094 -58.664764404296875 36.892227172851562 0 0 0
-31.631248474121094 -58.293716430664063 36.7137451171875 0 0 0
-31.131248474121094 -58.740150451660156 36.892227172851562 0 0 0
-31.131248474121094 -58.293716430664063 36.674560546875 0 0 0
-31.631248474121094 -57.793716430664062 36.515289306640625 0 0 0
-31.131248474121094 -57.793716430664062 36.47943115234375 0 0 0
-30.631248474121094 -58.807960510253906 36.892227172851562 0 0 0
-30.631248474121094 -58.793716430664063 36.886154174804688 0 0 0
-30.742156982421875 -58.793716430664063 36.892227172851562 0 0 0
-30.131248474121094 -58.83087158203125 36.892227172851562 0 0 0
-30.131248474121094 -58.793716430664063 36.878036499023438 0 0 0
-30.631248474121094 -59.293716430664063 37.1099853515625 0 0 0
-30.131248474121094 -59.293716430664063 37.087753295898438 0 0 0
-29.631248474121094 -58.862236022949219 36.892227172851562 0 0 0
-29.631248474121094 -58.793716430664063 36.867828369140625 0 0 0
-29.131248474121094 -58.958755493164063 36.892227172851562 0 0 0
-29.131248474121094 -58.793716430664063 36.829620361328125 0 0 0
-29.631248474121094 -59.293716430664063 37.066696166992188 0 0 0
-29.131248474121094 -59.293716430664063 37.031021118164063 0 0 0
-30.631248474121094 -58.293716430664063 36.657470703125 0 0 0
-30.131248474121094 -58.293716430664063 36.655029296875 0 0 0
-30.631248474121094 -57.793716430664062 36.463424682617188 0 0 0
-30.131248474121094 -57.793716430664062 36.447357177734375 0 0 0
-29.631248474121094 -58.293716430664063 36.641845703125 0 0 0
-29.131248474121094 -58.293716430664063 36.60888671875 0 0 0
-29.631248474121094 -57.793716430664062 36.425567626953125 0 0 0
-29.131248474121094 -57.793716430664062 36.401870727539063 0 0 0
-32.631248474121094 -57.293716430664062 36.405899047851562 0 0 0
-28.631248474121094 -59.059982299804688 36.892227172851562 0 0 0
-28.631248474121094 -58.793716430664063 36.779525756835938 0 0 0
-28.131248474121094 -59.126152038574219 36.892227172851562 0 0 0
-28.131248474121094 -58.793716430664063 36.744400024414063 0 0 0
-28.631248474121094 -59.293716430664063 36.99359130859375 0 0 0
-28.131248474121094 -59.293716430664063 36.9654541015625 0 0 0
-27.631248474121094 -59.155143737792969 36.892227172851562 0 0 0
-27.631248474121094 -58.793716430664063 36.731704711914063 0 0 0
-27.131248474121094 -59.176132202148438 36.892227172851562 0 0 0
-27.131248474121094 -58.793716430664063 36.7149658203125 0 0 0
-27.631248474121094 -59.293716430664063 36.953643798828125 0 0 0
-27.131248474121094 -59.293716430664063 36.948593139648437 0 0 0
-28.631248474121094 -58.293716430664063 36.565933227539062 0 0 0
-28.131248474121094 -58.293716430664063 36.5313720703125 0 0 0
-27.631248474121094 -58.293716430664063 36.515426635742188 0 0 0
-27.131248474121094 -58.293716430664063 36.497894287109375 0 0 0
-26.131248474121094 -59.316619873046875 36.892227172851562 0 0 0
-26.131248474121094 -59.293716430664063 36.88067626953125 0 0 0
-26.277862548828125 -59.293716430664063 36.892227172851562 0 0 0
-26.631248474121094 -59.23779296875 36.892227172851562 0 0 0
-26.631248474121094 -58.793716430664063 36.675552368164062 0 0 0
-26.131248474121094 -58.793716430664063 36.641006469726563 0 0 0
-26.631248474121094 -59.293716430664063 36.920547485351563 0 0 0
-25.631248474121094 -59.391471862792969 36.892227172851562 0 0 0
-25.631248474121094 -59.293716430664063 36.848709106445313 0 0 0
-25.131248474121094 -59.4898681640625 36.892227172851562 0 0 0
-25.131248474121094 -59.293716430664063 36.806121826171875 0 0 0
-25.631248474121094 -58.793716430664063 36.614639282226563 0 0 0
-25.131248474121094 -58.793716430664063 36.582275390625 0 0 0
-26.631248474121094 -58.293716430664063 36.465713500976562 0 0 0
-26.131248474121094 -58.293716430664063 36.424575805664063 0 0 0
-25.631248474121094 -58.293716430664063 36.39337158203125 0 0 0
-24.631248474121094 -59.591590881347656 36.892227172851562 0 0 0
-24.631248474121094 -59.293716430664063 36.764739990234375 0 0 0
-24.131248474121094 -59.673484802246094 36.892227172851562 0 0 0
-24.131248474121094 -59.293716430664063 36.731201171875 0 0 0
-24.631248474121094 -58.793716430664063 36.554763793945313 0 0 0
-24.131248474121094 -58.793716430664063 36.52587890625 0 0 0
-23.631248474121094 -59.75103759765625 36.892227172851562 0 0 0
-23.631248474121094 -59.293716430664063 36.702224731445313 0 0 0
-23.131248474121094 -59.293716430664063 36.681045532226563 0 0 0
-23.631248474121094 -58.793716430664063 36.505645751953125 0 0 0
-23.131248474121094 -58.793716430664063 36.4993896484375 0 0 0
-22.631248474121094 -59.293716430664063 36.6663818359375 0 0 0
-22.131248474121094 -59.293716430664063 36.671234130859375 0 0 0
-22.631248474121094 -58.793716430664063 36.4925537109375 0 0 0
-22.131248474121094 -58.793716430664063 36.489471435546875 0 0 0
-21.631248474121094 -59.293716430664063 36.678878784179688 0 0 0
-21.131240844726563 -59.293716430664063 36.658721923828125 0 0 0
-21.631248474121094 -58.793716430664063 36.470962524414063 0 0 0
-21.131240844726563 -58.793716430664063 36.429916381835938 0 0 0
-12.631240844726563 -59.860343933105469 36.392227172851562 0 0 0
-12.631240844726563 -59.793716430664063 36.365631103515625 0 0 0
-12.880722045898438 -59.793716430664063 36.392227172851562 0 0 0
-12.131240844726563 -59.92767333984375 36.392227172851562 0 0 0
-12.131240844726563 -59.793716430664063 36.336273193359375 0 0 0
-11.631240844726562 -60.032867431640625 36.392227172851562 0 0 0
-11.631240844726562 -59.793716430664063 36.2935791015625 0 0 0
-11.131240844726562 -60.112625122070313 36.392227172851562 0 0 0
-11.131240844726562 -59.793716430664063 36.262954711914063 0 0 0
-10.631240844726562 -60.144126892089844 36.392227172851562 0 0 0
-10.631240844726562 -59.793716430664063 36.255569458007812 0 0 0
-10.131240844726562 -60.124679565429688 36.392227172851562 0 0 0
-10.131240844726562 -59.793716430664063 36.258255004882813 0 0 0
-9.6312408447265625 -60.1092529296875 36.392227172851562 0 0 0
-9.6312408447265625 -59.793716430664063 36.249465942382813 0 0 0
-9.1312408447265625 -60.202201843261719 36.392227172851562 0 0 0
-9.1312408447265625 -59.793716430664063 36.206039428710938 0 0 0
-8.6312408447265625 -60.341560363769531 36.392227172851562 0 0 0
-8.6312408447265625 -60.293716430664063 36.370880126953125 0 0 0
-8.8011703491210937 -60.293716430664063 36.392227172851562 0 0 0
-8.1312408447265625 -60.422317504882813 36.392227172851562 0 0 0
-8.1312408447265625 -60.293716430664063 36.338485717773437 0 0 0
-8.6312408447265625 -59.793716430664063 36.164566040039063 0 0 0
-8.1312408447265625 -59.793716430664063 36.160888671875 0 0 0
-7.6312408447265625 -60.482765197753906 36.392227172851562 0 0 0
-7.6312408447265625 -60.293716430664063 36.3160400390625 0 0 0
-7.1312408447265625 -60.531875610351563 36.392227172851562 0 0 0
-7.1312408447265625 -60.293716430664063 36.293914794921875 0 0 0
-7.6312408447265625 -59.793716430664063 36.155364990234375 0 0 0
-7.1312408447265625 -59.793716430664063 36.128036499023438 0 0 0
-6.6312408447265625 -60.570648193359375 36.392227172851562 0 0 0
-6.6312408447265625 -60.293716430664063 36.283828735351562 0 0 0
-6.1312408447265625 -60.62249755859375 36.392227172851562 0 0 0
-6.1312408447265625 -60.293716430664063 36.27276611328125 0 0 0
-6.6312408447265625 -59.793716430664063 36.099502563476562 0 0 0
-6.1312408447265625 -59.793716430664063 36.066925048828125 0 0 0
-5.6312408447265625 -60.700965881347656 36.392227172851562 0 0 0
-5.6312408447265625 -60.293716430664063 36.240158081054687 0 0 0
-5.1312408447265625 -60.780685424804688 36.392227172851562 0 0 0
-5.1312408447265625 -60.293716430664063 36.201263427734375 0 0 0
-5.6312408447265625 -59.793716430664063 36.027008056640625 0 0 0
-5.1312408447265625 -59.793716430664063 35.9996337890625 0 0 0
-20.631240844726563 -58.807846069335938 36.392227172851562 0 0 0
-20.631240844726563 -58.793716430664063 36.38671875 0 0 0
-20.691246032714844 -58.793716430664063 36.392227172851562 0 0 0
-20.131240844726563 -58.891029357910156 36.392227172851562 0 0 0
-20.131240844726563 -58.793716430664063 36.355133056640625 0 0 0
-19.631240844726563 -58.923721313476563 36.392227172851562 0 0 0
-19.631240844726563 -58.793716430664063 36.337173461914063 0 0 0
-19.131240844726562 -58.96319580078125 36.392227172851562 0 0 0
-19.131240844726562 -58.793716430664063 36.316375732421875 0 0 0
-20.631240844726563 -58.293716430664063 36.198562622070313 0 0 0
-20.131240844726563 -58.293716430664063 36.16131591796875 0 0 0
-20.631240844726563 -57.793716430664062 36.00897216796875 0 0 0
-20.131240844726563 -57.793716430664062 35.959121704101563 0 0 0
-19.631240844726563 -58.293716430664063 36.128311157226563 0 0 0
-19.131240844726562 -58.293716430664063 36.104293823242188 0 0 0
-19.631240844726563 -57.793716430664062 35.92156982421875 0 0 0
-19.131240844726562 -57.793716430664062 35.9027099609375 0 0 0
-18.631240844726563 -59.031181335449219 36.392227172851562 0 0 0
-18.631240844726563 -58.793716430664063 36.292648315429688 0 0 0
-18.131240844726562 -59.097976684570312 36.392227172851562 0 0 0
-18.131240844726562 -58.793716430664063 36.277572631835938 0 0 0
-17.631240844726563 -59.118537902832031 36.392227172851562 0 0 0
-17.631240844726563 -58.793716430664063 36.2779541015625 0 0 0
-17.131240844726562 -59.074951171875 36.392227172851562 0 0 0
