53.1529541015625 2.0222320556640625 -6.0298309326171875 0 0 0
53.6529541015625 1.14093017578125 -5.545074462890625 0 0 0
54.1529541015625 1.0879364013671875 -5.545074462890625 0 0 0
54.1529541015625 1.5222320556640625 -5.8026580810546875 0 0 0
53.6529541015625 1.5222320556640625 -5.769317626953125 0 0 0
53.6529541015625 1.0222320556640625 -5.476165771484375 0 0 0
54.1529541015625 1.0222320556640625 -5.5054931640625 0 0 0
54.6529541015625 1.0222320556640625 -5.542266845703125 0 0 0
54.6529541015625 1.0269317626953125 -5.545074462890625 0 0 0
54.689743041992188 1.0222320556640625 -5.545074462890625 0 0 0
52.6529541015625 2.9626998901367187 -6.545074462890625 0 0 0
52.6529541015625 3.0222320556640625 -6.57818603515625 0 0 0
53.1529541015625 2.9265365600585937 -6.545074462890625 0 0 0
53.1529541015625 3.0222320556640625 -6.5980224609375 0 0 0
52.6529541015625 2.1027297973632813 -6.045074462890625 0 0 0
52.6529541015625 2.5222320556640625 -6.284271240234375 0 0 0
53.1529541015625 2.0500946044921875 -6.045074462890625 0 0 0
53.1529541015625 2.5222320556640625 -6.3094635009765625 0 0 0
53.6529541015625 2.8832778930664062 -6.545074462890625 0 0 0
53.6529541015625 3.0222320556640625 -6.6202392578125 0 0 0
54.1529541015625 2.8219833374023438 -6.545074462890625 0 0 0
54.1529541015625 3.0222320556640625 -6.6531829833984375 0 0 0
53.6529541015625 2.5222320556640625 -6.3390045166015625 0 0 0
54.1529541015625 2.5222320556640625 -6.3743896484375 0 0 0
52.6529541015625 3.5222320556640625 -6.874114990234375 0 0 0
53.1529541015625 3.5222320556640625 -6.8960418701171875 0 0 0
53.6529541015625 3.5222320556640625 -6.9165496826171875 0 0 0
54.1529541015625 3.5222320556640625 -6.944000244140625 0 0 0
54.6529541015625 2.7559585571289062 -6.545074462890625 0 0 0
54.6529541015625 3.0222320556640625 -6.6946563720703125 0 0 0
55.1529541015625 2.696929931640625 -6.545074462890625 0 0 0
55.1529541015625 3.0222320556640625 -6.7346343994140625 0 0 0
54.6529541015625 2.0222320556640625 -6.118011474609375 0 0 0
54.6529541015625 2.5222320556640625 -6.4071044921875 0 0 0
55.1529541015625 2.0222320556640625 -6.1417388916015625 0 0 0
55.1529541015625 2.5222320556640625 -6.438720703125 0 0 0
55.6529541015625 2.6400146484375 -6.545074462890625 0 0 0
55.6529541015625 3.0222320556640625 -6.7700653076171875 0 0 0
56.1529541015625 3.0222320556640625 -6.80218505859375 0 0 0
54.6529541015625 3.5222320556640625 -6.9791717529296875 0 0 0
55.1529541015625 3.5222320556640625 -7.0125885009765625 0 0 0
55.1529541015625 3.5803070068359375 -7.045074462890625 0 0 0
52.6529541015625 -17.080078125 4.954925537109375 0 0 0
52.6529541015625 -16.977767944335937 4.90142822265625 0 0 0
53.1529541015625 -17.130683898925781 4.954925537109375 0 0 0
53.1529541015625 -16.977767944335937 4.876312255859375 0 0 0
53.6529541015625 -17.17724609375 4.954925537109375 0 0 0
53.6529541015625 -16.977767944335937 4.850311279296875 0 0 0
54.1529541015625 -17.21368408203125 4.954925537109375 0 0 0
54.1529541015625 -16.977767944335937 4.8279571533203125 0 0 0
52.6529541015625 -16.205078125 4.454925537109375 0 0 0
52.6529541015625 -15.977767944335937 4.335296630859375 0 0 0
53.1529541015625 -16.259269714355469 4.454925537109375 0 0 0
53.1529541015625 -15.977767944335937 4.3026123046875 0 0 0
52.6529541015625 -16.477767944335938 4.621917724609375 0 0 0
53.1529541015625 -16.477767944335938 4.5908050537109375 0 0 0
53.6529541015625 -16.302818298339844 4.454925537109375 0 0 0
53.6529541015625 -15.977767944335937 4.275634765625 0 0 0
54.1529541015625 -16.326614379882813 4.454925537109375 0 0 0
54.1529541015625 -15.977767944335937 4.2652130126953125 0 0 0
53.6529541015625 -16.477767944335938 4.561370849609375 0 0 0
54.1529541015625 -16.477767944335938 4.5421600341796875 0 0 0
54.6529541015625 -17.245498657226563 4.954925537109375 0 0 0
54.6529541015625 -16.977767944335937 4.8114166259765625 0 0 0
55.1529541015625 -17.276268005371094 4.954925537109375 0 0 0
55.1529541015625 -16.977767944335937 4.7964019775390625 0 0 0
55.6529541015625 -17.330467224121094 4.954925537109375 0 0 0
55.6529541015625 -16.977767944335937 4.764251708984375 0 0 0
56.1529541015625 -17.388236999511719 4.954925537109375 0 0 0
56.1529541015625 -16.977767944335937 4.7272491455078125 0 0 0
54.6529541015625 -16.337776184082031 4.454925537109375 0 0 0
54.6529541015625 -15.977767944335937 4.2647552490234375 0 0 0
55.1529541015625 -16.371490478515625 4.454925537109375 0 0 0
55.1529541015625 -15.977767944335937 4.2427520751953125 0 0 0
54.6529541015625 -16.477767944335938 4.53363037109375 0 0 0
55.1529541015625 -16.477767944335938 4.5174560546875 0 0 0
56.1529541015625 -16.508674621582031 4.454925537109375 0 0 0
56.1529541015625 -16.477767944335938 4.43682861328125 0 0 0
55.890029907226563 -16.477767944335938 4.454925537109375 0 0 0
55.6529541015625 -16.443672180175781 4.454925537109375 0 0 0
55.6529541015625 -15.977767944335937 4.1974639892578125 0 0 0
56.1529541015625 -15.977767944335937 4.158843994140625 0 0 0
55.6529541015625 -16.477767944335938 4.475830078125 0 0 0
56.6529541015625 -17.426612854003906 4.954925537109375 0 0 0
56.6529541015625 -16.977767944335937 4.70208740234375 0 0 0
57.1529541015625 -17.451072692871094 4.954925537109375 0 0 0
57.1529541015625 -16.977767944335937 4.6860198974609375 0 0 0
57.6529541015625 -17.479118347167969 4.954925537109375 0 0 0
57.6529541015625 -17.477767944335938 4.9540863037109375 0 0 0
57.632431030273438 -17.477767944335938 4.954925537109375 0 0 0
58.1529541015625 -17.520820617675781 4.954925537109375 0 0 0
58.1529541015625 -17.477767944335938 4.9278411865234375 0 0 0
57.6529541015625 -16.977767944335937 4.6703643798828125 0 0 0
58.1529541015625 -16.977767944335937 4.643096923828125 0 0 0
56.6529541015625 -16.552772521972656 4.454925537109375 0 0 0
56.6529541015625 -16.477767944335938 4.410736083984375 0 0 0
57.1529541015625 -16.577583312988281 4.454925537109375 0 0 0
57.1529541015625 -16.477767944335938 4.395751953125 0 0 0
56.6529541015625 -15.977767944335937 4.1317291259765625 0 0 0
57.1529541015625 -15.977767944335937 4.1173095703125 0 0 0
57.6529541015625 -16.600265502929688 4.454925537109375 0 0 0
57.6529541015625 -16.477767944335938 4.3829803466796875 0 0 0
58.1529541015625 -16.646957397460938 4.454925537109375 0 0 0
58.1529541015625 -16.477767944335938 4.356719970703125 0 0 0
57.6529541015625 -15.977767944335937 4.1032562255859375 0 0 0
58.1529541015625 -15.977767944335937 4.0730438232421875 0 0 0
58.6529541015625 -17.5672607421875 4.954925537109375 0 0 0
58.6529541015625 -17.477767944335938 4.9000244140625 0 0 0
59.1529541015625 -17.612388610839844 4.954925537109375 0 0 0
59.1529541015625 -17.477767944335938 4.8735504150390625 0 0 0
58.6529541015625 -16.977767944335937 4.6100311279296875 0 0 0
59.1529541015625 -16.977767944335937 4.582244873046875 0 0 0
59.6529541015625 -17.658966064453125 4.954925537109375 0 0 0
59.6529541015625 -17.477767944335938 4.846405029296875 0 0 0
60.1529541015625 -17.69622802734375 4.954925537109375 0 0 0
60.1529541015625 -17.477767944335938 4.826263427734375 0 0 0
59.6529541015625 -16.977767944335937 4.559539794921875 0 0 0
60.1529541015625 -16.977767944335937 4.5447235107421875 0 0 0
58.6529541015625 -16.705894470214844 4.454925537109375 0 0 0
58.6529541015625 -16.477767944335938 4.3228607177734375 0 0 0
59.1529541015625 -16.757217407226563 4.454925537109375 0 0 0
59.1529541015625 -16.477767944335938 4.29443359375 0 0 0
58.6529541015625 -15.977767944335937 4.0402679443359375 0 0 0
59.1529541015625 -15.977767944335937 4.0153350830078125 0 0 0
59.6529541015625 -16.789215087890625 4.454925537109375 0 0 0
59.6529541015625 -16.477767944335938 4.2761383056640625 0 0 0
60.1529541015625 -16.803199768066406 4.454925537109375 0 0 0
60.1529541015625 -16.477767944335938 4.2670135498046875 0 0 0
59.6529541015625 -15.977767944335937 3.9991455078125 0 0 0
60.1529541015625 -15.977767944335937 3.98614501953125 0 0 0
52.6529541015625 -13.580528259277344 2.954925537109375 0 0 0
52.6529541015625 -13.477767944335938 2.8951416015625 0 0 0
53.1529541015625 -13.627197265625 2.954925537109375 0 0 0
53.1529541015625 -13.477767944335938 2.8689117431640625 0 0 0
52.6529541015625 -12.977767944335937 2.609527587890625 0 0 0
53.1529541015625 -12.977767944335937 2.5803375244140625 0 0 0
53.6529541015625 -13.665481567382813 2.954925537109375 0 0 0
53.6529541015625 -13.477767944335938 2.84698486328125 0 0 0
54.1529541015625 -13.693069458007813 2.954925537109375 0 0 0
54.1529541015625 -13.477767944335938 2.831268310546875 0 0 0
53.6529541015625 -12.977767944335937 2.5571746826171875 0 0 0
54.1529541015625 -12.977767944335937 2.540985107421875 0 0 0
52.6529541015625 -12.702117919921875 2.454925537109375 0 0 0
52.6529541015625 -12.477767944335937 2.322662353515625 0 0 0
53.1529541015625 -12.756027221679688 2.454925537109375 0 0 0
53.1529541015625 -12.477767944335937 2.29144287109375 0 0 0
52.6529541015625 -11.977767944335938 2.0321044921875 0 0 0
53.1529541015625 -11.977767944335938 2.0046539306640625 0 0 0
53.6529541015625 -12.796791076660156 2.454925537109375 0 0 0
53.6529541015625 -12.477767944335937 2.2689971923828125 0 0 0
54.1529541015625 -12.822418212890625 2.454925537109375 0 0 0
54.1529541015625 -12.477767944335937 2.257354736328125 0 0 0
53.6529541015625 -11.977767944335938 1.98779296875 0 0 0
54.1529541015625 -11.977767944335938 1.9802398681640625 0 0 0
55.1529541015625 -12.039543151855469 1.954925537109375 0 0 0
55.1529541015625 -11.977767944335938 1.9224395751953125 0 0 0
54.743820190429688 -11.977767944335938 1.954925537109375 0 0 0
55.6529541015625 -12.114883422851562 1.954925537109375 0 0 0
55.6529541015625 -11.977767944335938 1.8803558349609375 0 0 0
56.1529541015625 -12.154830932617188 1.954925537109375 0 0 0
56.1529541015625 -11.977767944335938 1.857208251953125 0 0 0
54.6529541015625 -13.725608825683594 2.954925537109375 0 0 0
54.6529541015625 -13.477767944335938 2.813323974609375 0 0 0
55.1529541015625 -13.772659301757812 2.954925537109375 0 0 0
55.1529541015625 -13.477767944335938 2.78497314453125 0 0 0
54.6529541015625 -12.977767944335937 2.521942138671875 0 0 0
55.1529541015625 -12.977767944335937 2.490631103515625 0 0 0
55.6529541015625 -13.823745727539063 2.954925537109375 0 0 0
55.6529541015625 -13.477767944335938 2.755584716796875 0 0 0
56.1529541015625 -13.860694885253906 2.954925537109375 0 0 0
55.6529541015625 -12.977767944335937 2.4568634033203125 0 0 0
54.6529541015625 -12.854148864746094 2.454925537109375 0 0 0
54.6529541015625 -12.477767944335937 2.2415313720703125 0 0 0
55.1529541015625 -12.911895751953125 2.454925537109375 0 0 0
55.1529541015625 -12.477767944335937 2.2064971923828125 0 0 0
54.6529541015625 -11.977767944335938 1.961639404296875 0 0 0
55.6529541015625 -12.974380493164063 2.454925537109375 0 0 0
55.6529541015625 -12.477767944335937 2.166229248046875 0 0 0
56.1529541015625 -12.477767944335937 2.1398468017578125 0 0 0
52.6529541015625 -15.313606262207031 3.954925537109375 0 0 0
52.6529541015625 -14.977767944335937 3.761322021484375 0 0 0
53.1529541015625 -15.365470886230469 3.954925537109375 0 0 0
53.1529541015625 -14.977767944335937 3.7306365966796875 0 0 0
53.6529541015625 -15.407928466796875 3.954925537109375 0 0 0
53.6529541015625 -14.977767944335937 3.7081756591796875 0 0 0
54.1529541015625 -15.429115295410156 3.954925537109375 0 0 0
54.1529541015625 -14.977767944335937 3.69586181640625 0 0 0
53.1529541015625 -14.518318176269531 3.454925537109375 0 0 0
53.1529541015625 -14.477767944335938 3.4301910400390625 0 0 0
52.7725830078125 -14.477767944335938 3.454925537109375 0 0 0
52.6529541015625 -14.462989807128906 3.454925537109375 0 0 0
52.6529541015625 -13.977767944335937 3.177001953125 0 0 0
53.1529541015625 -13.977767944335937 3.145660400390625 0 0 0
52.6529541015625 -14.477767944335938 3.46392822265625 0 0 0
53.6529541015625 -14.554061889648438 3.454925537109375 0 0 0
53.6529541015625 -14.477767944335938 3.408355712890625 0 0 0
54.1529541015625 -14.570671081542969 3.454925537109375 0 0 0
54.1529541015625 -14.477767944335938 3.398956298828125 0 0 0
53.6529541015625 -13.977767944335937 3.121795654296875 0 0 0
54.1529541015625 -13.977767944335937 3.1096343994140625 0 0 0
52.6529541015625 -15.477767944335938 4.0503387451171875 0 0 0
53.1529541015625 -15.477767944335938 4.0209197998046875 0 0 0
53.6529541015625 -15.477767944335938 3.996124267578125 0 0 0
54.1529541015625 -15.477767944335938 3.983978271484375 0 0 0
55.1529541015625 -15.492225646972656 3.954925537109375 0 0 0
55.1529541015625 -15.477767944335938 3.9466400146484375 0 0 0
55.020645141601563 -15.477767944335938 3.954925537109375 0 0 0
54.6529541015625 -15.442764282226563 3.954925537109375 0 0 0
54.6529541015625 -14.977767944335937 3.6826171875 0 0 0
55.1529541015625 -14.977767944335937 3.6508941650390625 0 0 0
55.6529541015625 -15.556015014648438 3.954925537109375 0 0 0
55.6529541015625 -15.477767944335938 3.9084930419921875 0 0 0
56.1529541015625 -15.606719970703125 3.954925537109375 0 0 0
56.1529541015625 -15.477767944335938 3.878570556640625 0 0 0
55.6529541015625 -14.977767944335937 3.6112518310546875 0 0 0
56.1529541015625 -14.977767944335937 3.5856475830078125 0 0 0
54.6529541015625 -14.593460083007812 3.454925537109375 0 0 0
54.6529541015625 -14.477767944335938 3.3853759765625 0 0 0
55.1529541015625 -14.643409729003906 3.454925537109375 0 0 0
55.1529541015625 -14.477767944335938 3.3557281494140625 0 0 0
54.6529541015625 -13.977767944335937 3.094451904296875 0 0 0
55.1529541015625 -13.977767944335937 3.066558837890625 0 0 0
55.6529541015625 -14.706779479980469 3.454925537109375 0 0 0
55.6529541015625 -14.477767944335938 3.318878173828125 0 0 0
56.1529541015625 -14.745826721191406 3.454925537109375 0 0 0
56.1529541015625 -14.477767944335938 3.2963104248046875 0 0 0
55.6529541015625 -13.977767944335937 3.034820556640625 0 0 0
56.1529541015625 -13.977767944335937 3.0153656005859375 0 0 0
54.6529541015625 -15.477767944335938 3.9769134521484375 0 0 0
57.6529541015625 -14.011054992675781 2.954925537109375 0 0 0
57.6529541015625 -13.977767944335937 2.9376983642578125 0 0 0
57.415664672851563 -13.977767944335937 2.954925537109375 0 0 0
58.1529541015625 -14.070426940917969 2.954925537109375 0 0 0
58.1529541015625 -13.977767944335937 2.9068603515625 0 0 0
58.6529541015625 -14.115081787109375 2.954925537109375 0 0 0
58.6529541015625 -13.977767944335937 2.8829498291015625 0 0 0
59.1529541015625 -14.145927429199219 2.954925537109375 0 0 0
59.1529541015625 -13.977767944335937 2.865509033203125 0 0 0
59.6529541015625 -14.179595947265625 2.954925537109375 0 0 0
59.6529541015625 -13.977767944335937 2.8451080322265625 0 0 0
60.1529541015625 -14.225341796875 2.954925537109375 0 0 0
60.1529541015625 -13.977767944335937 2.82073974609375 0 0 0
56.6529541015625 -12.160804748535156 1.954925537109375 0 0 0
56.6529541015625 -11.977767944335938 1.85723876953125 0 0 0
57.1529541015625 -12.178741455078125 1.954925537109375 0 0 0
57.1529541015625 -11.977767944335938 1.8510894775390625 0 0 0
57.6529541015625 -12.238174438476563 1.954925537109375 0 0 0
57.6529541015625 -11.977767944335938 1.8189544677734375 0 0 0
58.1529541015625 -11.977767944335938 1.7827606201171875 0 0 0
56.6529541015625 -13.886398315429688 2.954925537109375 0 0 0
57.1529541015625 -13.941574096679688 2.954925537109375 0 0 0
57.1529541015625 -13.477767944335938 2.6857147216796875 0 0 0
57.6529541015625 -13.477767944335938 2.6490478515625 0 0 0
58.1529541015625 -13.477767944335938 2.617156982421875 0 0 0
57.6529541015625 -13.14801025390625 2.454925537109375 0 0 0
58.6529541015625 -13.477767944335938 2.5936126708984375 0 0 0
59.1529541015625 -13.477767944335938 2.577789306640625 0 0 0
58.6529541015625 -13.240440368652344 2.454925537109375 0 0 0
59.6529541015625 -13.477767944335938 2.561614990234375 0 0 0
60.1529541015625 -13.477767944335938 2.543792724609375 0 0 0
60.1529541015625 -13.318092346191406 2.454925537109375 0 0 0
56.6529541015625 -15.642082214355469 3.954925537109375 0 0 0
56.6529541015625 -15.477767944335938 3.8593902587890625 0 0 0
57.1529541015625 -15.664131164550781 3.954925537109375 0 0 0
57.1529541015625 -15.477767944335938 3.84747314453125 0 0 0
56.6529541015625 -14.977767944335937 3.5760955810546875 0 0 0
57.1529541015625 -14.977767944335937 3.5598297119140625 0 0 0
57.6529541015625 -15.707138061523437 3.954925537109375 0 0 0
57.6529541015625 -15.477767944335938 3.8220062255859375 0 0 0
58.1529541015625 -15.769126892089844 3.954925537109375 0 0 0
58.1529541015625 -15.477767944335938 3.7852630615234375 0 0 0
57.6529541015625 -14.977767944335937 3.5224609375 0 0 0
58.1529541015625 -14.977767944335937 3.485870361328125 0 0 0
56.6529541015625 -14.760597229003906 3.454925537109375 0 0 0
56.6529541015625 -14.477767944335938 3.28887939453125 0 0 0
57.1529541015625 -14.798973083496094 3.454925537109375 0 0 0
57.1529541015625 -14.477767944335938 3.265869140625 0 0 0
56.6529541015625 -13.977767944335937 3.0052490234375 0 0 0
57.1529541015625 -13.977767944335937 2.97552490234375 0 0 0
57.6529541015625 -14.861968994140625 3.454925537109375 0 0 0
57.6529541015625 -14.477767944335938 3.22772216796875 0 0 0
58.1529541015625 -14.922569274902344 3.454925537109375 0 0 0
58.1529541015625 -14.477767944335938 3.1934356689453125 0 0 0
59.1529541015625 -14.986793518066406 3.454925537109375 0 0 0
59.1529541015625 -14.977767944335937 3.45013427734375 0 0 0
58.951492309570312 -14.977767944335937 3.454925537109375 0 0 0
58.6529541015625 -15.819526672363281 3.954925537109375 0 0 0
58.6529541015625 -15.477767944335938 3.7564697265625 0 0 0
59.1529541015625 -15.855056762695313 3.954925537109375 0 0 0
59.1529541015625 -15.477767944335938 3.73809814453125 0 0 0
58.6529541015625 -14.977767944335937 3.4624481201171875 0 0 0
59.6529541015625 -15.016685485839844 3.454925537109375 0 0 0
59.6529541015625 -14.977767944335937 3.4346160888671875 0 0 0
60.1529541015625 -15.074913024902344 3.454925537109375 0 0 0
60.1529541015625 -14.977767944335937 3.4012603759765625 0 0 0
59.6529541015625 -15.886032104492188 3.954925537109375 0 0 0
59.6529541015625 -15.477767944335938 3.724090576171875 0 0 0
60.1529541015625 -15.920822143554688 3.954925537109375 0 0 0
60.1529541015625 -15.477767944335938 3.7010955810546875 0 0 0
58.6529541015625 -14.964271545410156 3.454925537109375 0 0 0
58.6529541015625 -14.477767944335938 3.169586181640625 0 0 0
59.1529541015625 -14.477767944335938 3.1546478271484375 0 0 0
59.6529541015625 -14.477767944335938 3.1355438232421875 0 0 0
60.1529541015625 -14.477767944335938 3.1033477783203125 0 0 0
61.1529541015625 -16.041557312011719 3.954925537109375 0 0 0
61.1529541015625 -15.977767944335937 3.9222564697265625 0 0 0
60.68414306640625 -15.977767944335937 3.954925537109375 0 0 0
61.6529541015625 -16.089118957519531 3.954925537109375 0 0 0
61.6529541015625 -15.977767944335937 3.8952484130859375 0 0 0
62.1529541015625 -16.105712890625 3.954925537109375 0 0 0
62.1529541015625 -15.977767944335937 3.8851165771484375 0 0 0
60.6529541015625 -17.722824096679687 4.954925537109375 0 0 0
60.6529541015625 -17.477767944335938 4.8112335205078125 0 0 0
61.1529541015625 -17.755256652832031 4.954925537109375 0 0 0
61.1529541015625 -17.477767944335938 4.7921142578125 0 0 0
60.6529541015625 -16.977767944335937 4.529144287109375 0 0 0
61.1529541015625 -16.977767944335937 4.503631591796875 0 0 0
61.6529541015625 -17.477767944335938 4.77301025390625 0 0 0
61.6529541015625 -16.977767944335937 4.47772216796875 0 0 0
60.6529541015625 -16.836593627929688 4.454925537109375 0 0 0
60.6529541015625 -16.477767944335938 4.24737548828125 0 0 0
61.1529541015625 -16.890228271484375 4.454925537109375 0 0 0
61.1529541015625 -16.477767944335938 4.214385986328125 0 0 0
60.6529541015625 -15.977767944335937 3.957305908203125 0 0 0
61.6529541015625 -16.936996459960937 4.454925537109375 0 0 0
61.6529541015625 -16.477767944335938 4.1852264404296875 0 0 0
62.1529541015625 -16.969161987304687 4.454925537109375 0 0 0
62.1529541015625 -16.477767944335938 4.1689300537109375 0 0 0
62.1529541015625 -16.977767944335937 4.4596099853515625 0 0 0
62.6529541015625 -16.118438720703125 3.954925537109375 0 0 0
62.6529541015625 -15.977767944335937 3.8792572021484375 0 0 0
63.1529541015625 -16.171012878417969 3.954925537109375 0 0 0
63.1529541015625 -15.977767944335937 3.8500518798828125 0 0 0
63.6529541015625 -16.226333618164063 3.954925537109375 0 0 0
63.6529541015625 -15.977767944335937 3.818084716796875 0 0 0
64.1529541015625 -15.977767944335937 3.7979278564453125 0 0 0
62.6529541015625 -16.477767944335938 4.1639251708984375 0 0 0
63.1529541015625 -16.477767944335938 4.13995361328125 0 0 0
60.6529541015625 -14.271202087402344 2.954925537109375 0 0 0
60.6529541015625 -13.977767944335937 2.7987823486328125 0 0 0
61.1529541015625 -14.302871704101563 2.954925537109375 0 0 0
61.1529541015625 -13.977767944335937 2.7819671630859375 0 0 0
61.6529541015625 -14.322357177734375 2.954925537109375 0 0 0
61.6529541015625 -13.977767944335937 2.7701873779296875 0 0 0
62.1529541015625 -14.349685668945313 2.954925537109375 0 0 0
62.1529541015625 -13.977767944335937 2.7529144287109375 0 0 0
62.6529541015625 -14.395370483398438 2.954925537109375 0 0 0
62.6529541015625 -13.977767944335937 2.7252655029296875 0 0 0
63.6529541015625 -14.498733520507813 2.954925537109375 0 0 0
63.6529541015625 -14.477767944335938 2.9424896240234375 0 0 0
63.380508422851563 -14.477767944335938 2.954925537109375 0 0 0
64.1529541015625 -14.515571594238281 2.954925537109375 0 0 0
64.1529541015625 -14.477767944335938 2.932464599609375 0 0 0
61.1529541015625 -12.543022155761719 1.954925537109375 0 0 0
61.6529541015625 -12.574798583984375 1.954925537109375 0 0 0
61.6529541015625 -12.477767944335937 1.899200439453125 0 0 0
61.1529541015625 -12.477767944335937 1.918914794921875 0 0 0
61.1529541015625 -11.977767944335938 1.63079833984375 0 0 0
60.6529541015625 -13.362083435058594 2.454925537109375 0 0 0
61.1529541015625 -13.414962768554687 2.454925537109375 0 0 0
61.1529541015625 -12.977767944335937 2.2069854736328125 0 0 0
60.6529541015625 -13.477767944335938 2.5211181640625 0 0 0
61.1529541015625 -13.477767944335938 2.492950439453125 0 0 0
62.1529541015625 -13.481597900390625 2.454925537109375 0 0 0
62.1529541015625 -13.477767944335938 2.4526214599609375 0 0 0
62.08477783203125 -13.477767944335938 2.454925537109375 0 0 0
61.6529541015625 -13.451698303222656 2.454925537109375 0 0 0
61.6529541015625 -12.977767944335937 2.1796875 0 0 0
62.1529541015625 -12.977767944335937 2.1625823974609375 0 0 0
61.6529541015625 -13.477767944335938 2.4713287353515625 0 0 0
62.6529541015625 -13.512771606445313 2.454925537109375 0 0 0
62.6529541015625 -13.477767944335938 2.4336090087890625 0 0 0
60.6529541015625 -15.128021240234375 3.454925537109375 0 0 0
60.6529541015625 -14.977767944335937 3.3659515380859375 0 0 0
61.1529541015625 -15.178428649902344 3.454925537109375 0 0 0
61.1529541015625 -14.977767944335937 3.3367919921875 0 0 0
60.6529541015625 -15.973793029785156 3.954925537109375 0 0 0
60.6529541015625 -15.477767944335938 3.6678619384765625 0 0 0
61.1529541015625 -15.477767944335938 3.6323699951171875 0 0 0
61.6529541015625 -15.217353820800781 3.454925537109375 0 0 0
61.6529541015625 -14.977767944335937 3.31939697265625 0 0 0
62.1529541015625 -15.227142333984375 3.454925537109375 0 0 0
62.1529541015625 -14.977767944335937 3.3166046142578125 0 0 0
61.6529541015625 -15.477767944335938 3.6068267822265625 0 0 0
62.1529541015625 -15.477767944335938 3.6007537841796875 0 0 0
60.6529541015625 -14.477767944335938 3.0708465576171875 0 0 0
61.1529541015625 -14.477767944335938 3.050384521484375 0 0 0
61.6529541015625 -14.477767944335938 3.0418548583984375 0 0 0
62.1529541015625 -14.477767944335938 3.0330657958984375 0 0 0
62.6529541015625 -15.247787475585938 3.454925537109375 0 0 0
62.6529541015625 -14.977767944335937 3.3017578125 0 0 0
63.1529541015625 -15.304275512695313 3.454925537109375 0 0 0
63.1529541015625 -14.977767944335937 3.266357421875 0 0 0
62.6529541015625 -15.477767944335938 3.5929107666015625 0 0 0
63.1529541015625 -15.477767944335938 3.5614166259765625 0 0 0
63.6529541015625 -15.355316162109375 3.454925537109375 0 0 0
63.6529541015625 -14.977767944335937 3.2356719970703125 0 0 0
64.1529541015625 -14.977767944335937 3.2122955322265625 0 0 0
62.6529541015625 -14.477767944335938 3.007049560546875 0 0 0
63.1529541015625 -14.477767944335938 2.9685821533203125 0 0 0
63.1529541015625 -14.455421447753906 2.954925537109375 0 0 0
64.6529541015625 -14.518707275390625 2.954925537109375 0 0 0
64.6529541015625 -14.477767944335938 2.9310455322265625 0 0 0
52.6529541015625 -24.096343994140625 8.954925537109375 0 0 0
52.6529541015625 -23.977767944335938 8.89337158203125 0 0 0
53.1529541015625 -24.124099731445313 8.954925537109375 0 0 0
53.1529541015625 -23.977767944335938 8.8777923583984375 0 0 0
53.6529541015625 -24.148918151855469 8.954925537109375 0 0 0
53.6529541015625 -23.977767944335938 8.8656463623046875 0 0 0
54.1529541015625 -24.179389953613281 8.954925537109375 0 0 0
54.1529541015625 -23.977767944335938 8.8510894775390625 0 0 0
54.6529541015625 -24.216865539550781 8.954925537109375 0 0 0
54.6529541015625 -23.977767944335938 8.8291015625 0 0 0
55.1529541015625 -24.231185913085938 8.954925537109375 0 0 0
55.1529541015625 -23.977767944335938 8.8178863525390625 0 0 0
55.6529541015625 -24.2298583984375 8.954925537109375 0 0 0
55.6529541015625 -23.977767944335938 8.819976806640625 0 0 0
56.1529541015625 -24.300254821777344 8.954925537109375 0 0 0
56.1529541015625 -23.977767944335938 8.7860870361328125 0 0 0
56.6529541015625 -23.977767944335938 8.7430267333984375 0 0 0
59.6529541015625 -24.562896728515625 8.954925537109375 0 0 0
60.1529541015625 -24.589805603027344 8.954925537109375 0 0 0
60.1529541015625 -24.477767944335938 8.8910369873046875 0 0 0
59.6529541015625 -24.477767944335938 8.9055938720703125 0 0 0
59.6529541015625 -23.977767944335938 8.6195220947265625 0 0 0
60.1529541015625 -23.977767944335938 8.60479736328125 0 0 0
52.6529541015625 -20.560478210449219 6.954925537109375 0 0 0
52.6529541015625 -20.477767944335938 6.9076080322265625 0 0 0
53.1529541015625 -20.602218627929688 6.954925537109375 0 0 0
53.1529541015625 -20.477767944335938 6.88433837890625 0 0 0
52.6529541015625 -19.977767944335938 6.63104248046875 0 0 0
53.1529541015625 -19.977767944335938 6.6027679443359375 0 0 0
53.6529541015625 -20.654884338378906 6.954925537109375 0 0 0
53.6529541015625 -20.477767944335938 6.8553009033203125 0 0 0
54.1529541015625 -20.6954345703125 6.954925537109375 0 0 0
54.1529541015625 -20.477767944335938 6.833221435546875 0 0 0
53.6529541015625 -19.977767944335938 6.570648193359375 0 0 0
54.1529541015625 -19.977767944335938 6.551116943359375 0 0 0
54.6529541015625 -20.698112487792969 6.954925537109375 0 0 0
54.6529541015625 -20.477767944335938 6.8318328857421875 0 0 0
55.1529541015625 -20.679191589355469 6.954925537109375 0 0 0
55.1529541015625 -20.477767944335938 6.8416290283203125 0 0 0
54.6529541015625 -19.977767944335938 6.55389404296875 0 0 0
55.1529541015625 -19.977767944335938 6.5531463623046875 0 0 0
55.6529541015625 -20.72979736328125 6.954925537109375 0 0 0
55.6529541015625 -20.477767944335938 6.810882568359375 0 0 0
56.1529541015625 -20.807502746582031 6.954925537109375 0 0 0
56.1529541015625 -20.477767944335938 6.7649078369140625 0 0 0
55.6529541015625 -19.977767944335938 6.5085601806640625 0 0 0
56.1529541015625 -19.977767944335938 6.4628753662109375 0 0 0
52.6529541015625 -22.335586547851563 7.954925537109375 0 0 0
52.6529541015625 -21.977767944335938 7.7556610107421875 0 0 0
53.1529541015625 -22.368911743164062 7.954925537109375 0 0 0
53.1529541015625 -21.977767944335938 7.7345123291015625 0 0 0
53.6529541015625 -22.415931701660156 7.954925537109375 0 0 0
53.6529541015625 -21.977767944335938 7.70849609375 0 0 0
54.1529541015625 -22.463096618652344 7.954925537109375 0 0 0
54.1529541015625 -21.977767944335938 7.6854248046875 0 0 0
52.6529541015625 -23.206123352050781 8.454925537109375 0 0 0
52.6529541015625 -22.977767944335938 8.3318328857421875 0 0 0
53.1529541015625 -23.234359741210938 8.454925537109375 0 0 0
53.1529541015625 -22.977767944335938 8.315460205078125 0 0 0
52.6529541015625 -23.477767944335938 8.6115570068359375 0 0 0
53.1529541015625 -23.477767944335938 8.5958404541015625 0 0 0
53.6529541015625 -23.282485961914063 8.454925537109375 0 0 0
53.6529541015625 -22.977767944335938 8.2831878662109375 0 0 0
54.1529541015625 -23.333297729492188 8.454925537109375 0 0 0
54.1529541015625 -22.977767944335938 8.2496337890625 0 0 0
53.6529541015625 -23.477767944335938 8.5745849609375 0 0 0
54.1529541015625 -23.477767944335938 8.545867919921875 0 0 0
52.6529541015625 -22.477767944335938 8.0401611328125 0 0 0
53.1529541015625 -22.477767944335938 8.0208282470703125 0 0 0
53.6529541015625 -22.477767944335938 7.9908599853515625 0 0 0
54.1529541015625 -22.477767944335938 7.9632720947265625 0 0 0
54.6529541015625 -22.48388671875 7.954925537109375 0 0 0
54.6529541015625 -22.477767944335938 7.95147705078125 0 0 0
54.42242431640625 -22.477767944335938 7.954925537109375 0 0 0
55.046234130859375 -22.477767944335938 7.954925537109375 0 0 0
54.6529541015625 -21.977767944335938 7.677032470703125 0 0 0
55.1529541015625 -22.46746826171875 7.954925537109375 0 0 0
55.1529541015625 -21.977767944335938 7.6850433349609375 0 0 0
55.6529541015625 -22.478080749511719 7.954925537109375 0 0 0
55.6529541015625 -22.477767944335938 7.9547576904296875 0 0 0
55.65228271484375 -22.477767944335938 7.954925537109375 0 0 0
56.1529541015625 -22.555671691894531 7.954925537109375 0 0 0
56.1529541015625 -22.477767944335938 7.9123687744140625 0 0 0
55.6529541015625 -21.977767944335938 7.666900634765625 0 0 0
56.1529541015625 -21.977767944335938 7.6183319091796875 0 0 0
54.6529541015625 -23.36865234375 8.454925537109375 0 0 0
54.6529541015625 -22.977767944335938 8.2285308837890625 0 0 0
55.1529541015625 -23.368843078613281 8.454925537109375 0 0 0
55.1529541015625 -22.977767944335938 8.2333831787109375 0 0 0
54.6529541015625 -23.477767944335938 8.51995849609375 0 0 0
55.1529541015625 -23.477767944335938 8.515472412109375 0 0 0
55.6529541015625 -23.345596313476562 8.454925537109375 0 0 0
55.6529541015625 -22.977767944335938 8.2484283447265625 0 0 0
56.1529541015625 -23.394844055175781 8.454925537109375 0 0 0
56.1529541015625 -22.977767944335938 8.2160797119140625 0 0 0
55.6529541015625 -23.477767944335938 8.530792236328125 0 0 0
56.1529541015625 -23.477767944335938 8.5055999755859375 0 0 0
55.1529541015625 -22.477767944335938 7.96063232421875 0 0 0
53.1529541015625 -21.488510131835938 7.454925537109375 0 0 0
53.1529541015625 -21.477767944335938 7.4484100341796875 0 0 0
52.989990234375 -21.477767944335938 7.454925537109375 0 0 0
52.6529541015625 -21.4539794921875 7.454925537109375 0 0 0
52.6529541015625 -20.977767944335938 7.182403564453125 0 0 0
53.1529541015625 -20.977767944335938 7.1620635986328125 0 0 0
52.6529541015625 -21.477767944335938 7.4690704345703125 0 0 0
53.6529541015625 -21.531883239746094 7.454925537109375 0 0 0
53.6529541015625 -21.477767944335938 7.421875 0 0 0
54.1529541015625 -21.572647094726563 7.454925537109375 0 0 0
54.1529541015625 -21.477767944335938 7.3976287841796875 0 0 0
53.6529541015625 -20.977767944335938 7.132720947265625 0 0 0
54.1529541015625 -20.977767944335938 7.1076507568359375 0 0 0
54.6529541015625 -21.586647033691406 7.454925537109375 0 0 0
54.6529541015625 -21.477767944335938 7.38922119140625 0 0 0
55.1529541015625 -21.5694580078125 7.454925537109375 0 0 0
55.1529541015625 -21.477767944335938 7.3997955322265625 0 0 0
54.6529541015625 -20.977767944335938 7.1031341552734375 0 0 0
55.1529541015625 -20.977767944335938 7.1162261962890625 0 0 0
55.6529541015625 -21.608657836914063 7.454925537109375 0 0 0
55.6529541015625 -21.477767944335938 7.377044677734375 0 0 0
56.1529541015625 -21.688468933105469 7.454925537109375 0 0 0
56.1529541015625 -21.477767944335938 7.330352783203125 0 0 0
55.6529541015625 -20.977767944335938 7.0928192138671875 0 0 0
56.1529541015625 -20.977767944335938 7.0479888916015625 0 0 0
56.6529541015625 -20.012718200683594 6.454925537109375 0 0 0
56.6529541015625 -19.977767944335938 6.4364166259765625 0 0 0
56.257965087890625 -19.977767944335938 6.454925537109375 0 0 0
57.1529541015625 -20.011825561523438 6.454925537109375 0 0 0
57.1529541015625 -19.977767944335938 6.4367218017578125 0 0 0
56.6529541015625 -20.857734680175781 6.954925537109375 0 0 0
56.6529541015625 -20.477767944335938 6.73541259765625 0 0 0
57.1529541015625 -20.868995666503906 6.954925537109375 0 0 0
57.1529541015625 -20.477767944335938 6.733154296875 0 0 0
57.364486694335938 -19.977767944335938 6.454925537109375 0 0 0
58.1529541015625 -20.003608703613281 6.454925537109375 0 0 0
58.1529541015625 -19.977767944335938 6.4412994384765625 0 0 0
57.832839965820312 -19.977767944335938 6.454925537109375 0 0 0
57.6529541015625 -20.857109069824219 6.954925537109375 0 0 0
57.6529541015625 -20.477767944335938 6.7464752197265625 0 0 0
58.1529541015625 -20.906532287597656 6.954925537109375 0 0 0
58.1529541015625 -20.477767944335938 6.724212646484375 0 0 0
57.6529541015625 -19.977767944335938 6.4583282470703125 0 0 0
58.6529541015625 -20.993377685546875 6.954925537109375 0 0 0
58.6529541015625 -20.977767944335938 6.9471435546875 0 0 0
58.563751220703125 -20.977767944335938 6.954925537109375 0 0 0
59.1529541015625 -21.059593200683594 6.954925537109375 0 0 0
59.1529541015625 -20.977767944335938 6.912445068359375 0 0 0
59.6529541015625 -21.086654663085938 6.954925537109375 0 0 0
59.6529541015625 -20.977767944335938 6.8986968994140625 0 0 0
60.1529541015625 -21.062797546386719 6.954925537109375 0 0 0
60.1529541015625 -20.977767944335938 6.911773681640625 0 0 0
58.6529541015625 -20.081695556640625 6.454925537109375 0 0 0
58.6529541015625 -19.977767944335938 6.4013214111328125 0 0 0
59.1529541015625 -20.160606384277344 6.454925537109375 0 0 0
59.1529541015625 -19.977767944335938 6.3604888916015625 0 0 0
58.6529541015625 -20.477767944335938 6.685394287109375 0 0 0
59.1529541015625 -20.477767944335938 6.64581298828125 0 0 0
59.6529541015625 -20.189743041992187 6.454925537109375 0 0 0
59.6529541015625 -19.977767944335938 6.3436126708984375 0 0 0
60.1529541015625 -20.169700622558594 6.454925537109375 0 0 0
60.1529541015625 -19.977767944335938 6.3509368896484375 0 0 0
59.6529541015625 -20.477767944335938 6.63067626953125 0 0 0
60.1529541015625 -20.477767944335938 6.6448974609375 0 0 0
56.6529541015625 -22.6236572265625 7.954925537109375 0 0 0
56.6529541015625 -22.477767944335938 7.872894287109375 0 0 0
57.1529541015625 -22.662300109863281 7.954925537109375 0 0 0
57.1529541015625 -22.477767944335938 7.8503265380859375 0 0 0
56.6529541015625 -21.977767944335938 7.578399658203125 0 0 0
57.1529541015625 -21.977767944335938 7.5606842041015625 0 0 0
58.1529541015625 -22.64959716796875 7.954925537109375 0 0 0
58.1529541015625 -22.477767944335938 7.8593597412109375 0 0 0
57.6529541015625 -22.477767944335938 7.8509979248046875 0 0 0
57.6529541015625 -21.977767944335938 7.567779541015625 0 0 0
58.1529541015625 -21.977767944335938 7.556671142578125 0 0 0
57.1529541015625 -23.5260009765625 8.454925537109375 0 0 0
57.1529541015625 -23.477767944335938 8.4251556396484375 0 0 0
56.687774658203125 -23.477767944335938 8.454925537109375 0 0 0
56.6529541015625 -23.472785949707031 8.454925537109375 0 0 0
56.6529541015625 -22.977767944335938 8.1661376953125 0 0 0
57.1529541015625 -22.977767944335938 8.1334228515625 0 0 0
56.6529541015625 -23.477767944335938 8.458038330078125 0 0 0
57.1529541015625 -23.977767944335938 8.7105712890625 0 0 0
58.6529541015625 -22.477767944335938 7.824676513671875 0 0 0
58.6529541015625 -21.977767944335938 7.512847900390625 0 0 0
59.1529541015625 -22.477767944335938 7.78173828125 0 0 0
59.1529541015625 -21.977767944335938 7.4739837646484375 0 0 0
59.6529541015625 -21.990158081054687 7.454925537109375 0 0 0
59.6529541015625 -21.977767944335938 7.44818115234375 0 0 0
59.464950561523438 -21.977767944335938 7.454925537109375 0 0 0
60.1529541015625 -21.98822021484375 7.454925537109375 0 0 0
60.1529541015625 -21.977767944335938 7.44903564453125 0 0 0
59.1529541015625 -22.781898498535156 7.954925537109375 0 0 0
59.6529541015625 -22.825485229492187 7.954925537109375 0 0 0
59.6529541015625 -22.477767944335938 7.7534027099609375 0 0 0
60.1529541015625 -22.827186584472656 7.954925537109375 0 0 0
60.1529541015625 -22.477767944335938 7.75103759765625 0 0 0
59.6529541015625 -23.689888000488281 8.454925537109375 0 0 0
60.1529541015625 -23.701118469238281 8.454925537109375 0 0 0
60.1529541015625 -23.477767944335938 8.3184661865234375 0 0 0
59.6529541015625 -23.477767944335938 8.32318115234375 0 0 0
59.6529541015625 -22.977767944335938 8.03955078125 0 0 0
60.1529541015625 -22.977767944335938 8.0407867431640625 0 0 0
56.6529541015625 -21.750038146972656 7.454925537109375 0 0 0
56.6529541015625 -21.477767944335938 7.29425048828125 0 0 0
57.1529541015625 -21.776863098144531 7.454925537109375 0 0 0
57.1529541015625 -21.477767944335938 7.27978515625 0 0 0
56.6529541015625 -20.977767944335938 7.0178375244140625 0 0 0
57.1529541015625 -20.977767944335938 7.0097808837890625 0 0 0
57.6529541015625 -21.765960693359375 7.454925537109375 0 0 0
57.6529541015625 -21.477767944335938 7.2891387939453125 0 0 0
58.1529541015625 -21.800605773925781 7.454925537109375 0 0 0
58.1529541015625 -21.477767944335938 7.26708984375 0 0 0
57.6529541015625 -20.977767944335938 7.01806640625 0 0 0
58.1529541015625 -20.977767944335938 6.9919281005859375 0 0 0
58.6529541015625 -21.878982543945312 7.454925537109375 0 0 0
58.6529541015625 -21.477767944335938 7.217864990234375 0 0 0
59.1529541015625 -21.9453125 7.454925537109375 0 0 0
59.1529541015625 -21.477767944335938 7.1807403564453125 0 0 0
59.6529541015625 -21.477767944335938 7.1605377197265625 0 0 0
60.1529541015625 -21.477767944335938 7.167388916015625 0 0 0
52.6529541015625 -27.580741882324219 10.954925537109375 0 0 0
52.6529541015625 -27.477767944335938 10.894561767578125 0 0 0
53.1529541015625 -27.608848571777344 10.954925537109375 0 0 0
53.1529541015625 -27.477767944335938 10.879119873046875 0 0 0
52.6529541015625 -26.977767944335938 10.604415893554688 0 0 0
53.1529541015625 -26.977767944335938 10.590789794921875 0 0 0
53.6529541015625 -27.62054443359375 10.954925537109375 0 0 0
53.6529541015625 -27.477767944335938 10.873397827148438 0 0 0
53.6529541015625 -26.977767944335938 10.585952758789063 0 0 0
54.1529541015625 -27.477767944335938 10.8641357421875 0 0 0
54.1529541015625 -26.977767944335938 10.576553344726563 0 0 0
52.6529541015625 -26.717056274414062 10.454925537109375 0 0 0
52.6529541015625 -26.477767944335937 10.31256103515625 0 0 0
53.1529541015625 -26.739601135253906 10.454925537109375 0 0 0
53.1529541015625 -26.477767944335937 10.300384521484375 0 0 0
52.6529541015625 -25.977767944335937 10.029098510742187 0 0 0
53.1529541015625 -25.977767944335937 10.0157470703125 0 0 0
53.6529541015625 -26.747673034667969 10.454925537109375 0 0 0
53.6529541015625 -26.477767944335937 10.297042846679687 0 0 0
54.1529541015625 -26.754997253417969 10.454925537109375 0 0 0
54.1529541015625 -26.477767944335937 10.29229736328125 0 0 0
53.6529541015625 -25.977767944335937 10.015182495117187 0 0 0
54.1529541015625 -25.977767944335937 10.010284423828125 0 0 0
54.6529541015625 -27.477767944335938 10.83544921875 0 0 0
54.6529541015625 -26.977767944335938 10.542526245117187 0 0 0
54.6529541015625 -26.804222106933594 10.454925537109375 0 0 0
52.6529541015625 -25.837333679199219 9.954925537109375 0 0 0
52.6529541015625 -25.477767944335938 9.7516021728515625 0 0 0
53.1529541015625 -25.860671997070313 9.954925537109375 0 0 0
53.1529541015625 -25.477767944335938 9.7397308349609375 0 0 0
52.6529541015625 -24.977767944335938 9.465118408203125 0 0 0
53.1529541015625 -24.977767944335938 9.458465576171875 0 0 0
53.6529541015625 -24.97821044921875 9.454925537109375 0 0 0
53.6529541015625 -24.977767944335938 9.454681396484375 0 0 0
53.637054443359375 -24.977767944335938 9.454925537109375 0 0 0
54.1529541015625 -25.010360717773438 9.454925537109375 0 0 0
54.1529541015625 -24.977767944335938 9.43658447265625 0 0 0
53.6529541015625 -25.861618041992188 9.954925537109375 0 0 0
53.6529541015625 -25.477767944335938 9.741241455078125 0 0 0
54.1529541015625 -25.879600524902344 9.954925537109375 0 0 0
54.1529541015625 -25.477767944335938 9.72894287109375 0 0 0
52.6529541015625 -24.959251403808594 9.454925537109375 0 0 0
52.6529541015625 -24.477767944335938 9.1745452880859375 0 0 0
53.1529541015625 -24.971466064453125 9.454925537109375 0 0 0
53.1529541015625 -24.477767944335938 9.164642333984375 0 0 0
53.6529541015625 -24.477767944335938 9.156646728515625 0 0 0
54.1529541015625 -24.477767944335938 9.1446685791015625 0 0 0
54.6529541015625 -25.058937072753906 9.454925537109375 0 0 0
54.6529541015625 -24.977767944335938 9.40753173828125 0 0 0
55.1529541015625 -25.080253601074219 9.454925537109375 0 0 0
55.1529541015625 -24.977767944335938 9.395111083984375 0 0 0
54.6529541015625 -25.477767944335938 9.69561767578125 0 0 0
55.1529541015625 -25.477767944335938 9.6822357177734375 0 0 0
55.6529541015625 -24.977767944335938 9.390716552734375 0 0 0
54.6529541015625 -24.477767944335938 9.1262054443359375 0 0 0
55.1529541015625 -24.477767944335938 9.115081787109375 0 0 0
55.6529541015625 -24.477767944335938 9.1028289794921875 0 0 0
56.1529541015625 -24.977767944335938 9.349151611328125 0 0 0
59.6529541015625 -26.477767944335937 10.057647705078125 0 0 0
60.1529541015625 -26.977767944335938 10.319091796875 0 0 0
60.1529541015625 -26.477767944335937 10.024444580078125 0 0 0
60.1529541015625 -26.354019165039063 9.954925537109375 0 0 0
59.1529541015625 -25.389938354492188 9.454925537109375 0 0 0
59.6529541015625 -25.444587707519531 9.454925537109375 0 0 0
59.6529541015625 -24.977767944335938 9.1789398193359375 0 0 0
60.1529541015625 -25.471961975097656 9.454925537109375 0 0 0
60.1529541015625 -24.977767944335938 9.16827392578125 0 0 0
59.1529541015625 -25.477767944335938 9.5115814208984375 0 0 0
59.6529541015625 -25.977767944335937 9.776336669921875 0 0 0
59.6529541015625 -25.477767944335938 9.4759063720703125 0 0 0
60.1529541015625 -25.977767944335937 9.7445831298828125 0 0 0
60.1529541015625 -25.477767944335938 9.45849609375 0 0 0
60.6529541015625 -24.577606201171875 8.954925537109375 0 0 0
60.6529541015625 -24.477767944335938 8.89898681640625 0 0 0
61.1529541015625 -24.556800842285156 8.954925537109375 0 0 0
61.1529541015625 -24.477767944335938 8.910614013671875 0 0 0
60.6529541015625 -23.977767944335938 8.6218109130859375 0 0 0
61.1529541015625 -23.977767944335938 8.633209228515625 0 0 0
61.6529541015625 -24.631622314453125 8.954925537109375 0 0 0
61.6529541015625 -24.477767944335938 8.86859130859375 0 0 0
62.1529541015625 -24.724716186523438 8.954925537109375 0 0 0
62.1529541015625 -24.477767944335938 8.817657470703125 0 0 0
61.6529541015625 -23.977767944335938 8.58203125 0 0 0
62.1529541015625 -23.977767944335938 8.523223876953125 0 0 0
62.6529541015625 -24.779022216796875 8.954925537109375 0 0 0
62.6529541015625 -24.477767944335938 8.7874603271484375 0 0 0
63.1529541015625 -24.477767944335938 8.77935791015625 0 0 0
62.6529541015625 -23.977767944335938 8.4939422607421875 0 0 0
60.6529541015625 -21.056869506835937 6.954925537109375 0 0 0
60.6529541015625 -20.977767944335938 6.914642333984375 0 0 0
61.1529541015625 -21.171730041503906 6.954925537109375 0 0 0
61.1529541015625 -20.977767944335938 6.857818603515625 0 0 0
61.6529541015625 -21.27276611328125 6.954925537109375 0 0 0
61.6529541015625 -20.977767944335938 6.8050384521484375 0 0 0
62.1529541015625 -21.306938171386719 6.954925537109375 0 0 0
62.1529541015625 -20.977767944335938 6.784332275390625 0 0 0
60.6529541015625 -20.203338623046875 6.454925537109375 0 0 0
60.6529541015625 -19.977767944335938 6.328277587890625 0 0 0
61.1529541015625 -20.3070068359375 6.454925537109375 0 0 0
61.1529541015625 -19.977767944335938 6.273162841796875 0 0 0
60.6529541015625 -20.477767944335938 6.63336181640625 0 0 0
61.1529541015625 -20.477767944335938 6.5696258544921875 0 0 0
61.6529541015625 -20.390670776367188 6.454925537109375 0 0 0
61.6529541015625 -19.977767944335938 6.2210540771484375 0 0 0
62.1529541015625 -20.423721313476563 6.454925537109375 0 0 0
62.1529541015625 -19.977767944335938 6.1964263916015625 0 0 0
61.6529541015625 -20.477767944335938 6.5128021240234375 0 0 0
62.1529541015625 -20.477767944335938 6.4905242919921875 0 0 0
62.6529541015625 -20.477767944335938 6.5013885498046875 0 0 0
62.1529541015625 -23.003265380859375 7.954925537109375 0 0 0
62.1529541015625 -22.977767944335938 7.941009521484375 0 0 0
61.94390869140625 -22.977767944335938 7.954925537109375 0 0 0
60.652908325195313 -21.977767944335938 7.454925537109375 0 0 0
61.1529541015625 -22.050712585449219 7.454925537109375 0 0 0
61.1529541015625 -21.977767944335938 7.4121856689453125 0 0 0
60.747894287109375 -21.977767944335938 7.454925537109375 0 0 0
60.6529541015625 -22.802131652832031 7.954925537109375 0 0 0
60.6529541015625 -22.477767944335938 7.765899658203125 0 0 0
61.1529541015625 -22.851325988769531 7.954925537109375 0 0 0
61.1529541015625 -22.477767944335938 7.727294921875 0 0 0
60.6529541015625 -21.977767944335938 7.463043212890625 0 0 0
61.6529541015625 -22.140037536621094 7.454925537109375 0 0 0
61.6529541015625 -21.977767944335938 7.3610992431640625 0 0 0
62.1529541015625 -22.191581726074219 7.454925537109375 0 0 0
62.1529541015625 -21.977767944335938 7.33270263671875 0 0 0
61.6529541015625 -22.938697814941406 7.954925537109375 0 0 0
61.6529541015625 -22.477767944335938 7.6725921630859375 0 0 0
62.1529541015625 -22.477767944335938 7.63763427734375 0 0 0
60.6529541015625 -23.666915893554688 8.454925537109375 0 0 0
60.6529541015625 -23.477767944335938 8.343414306640625 0 0 0
61.1529541015625 -23.66339111328125 8.454925537109375 0 0 0
61.1529541015625 -23.477767944335938 8.3428497314453125 0 0 0
60.6529541015625 -22.977767944335938 8.0622711181640625 0 0 0
61.1529541015625 -22.977767944335938 8.0388031005859375 0 0 0
61.6529541015625 -23.758110046386719 8.454925537109375 0 0 0
61.6529541015625 -23.477767944335938 8.286346435546875 0 0 0
62.1529541015625 -23.855514526367188 8.454925537109375 0 0 0
62.1529541015625 -23.477767944335938 8.23431396484375 0 0 0
61.6529541015625 -22.977767944335938 7.97943115234375 0 0 0
62.6529541015625 -23.904266357421875 8.454925537109375 0 0 0
60.6529541015625 -21.963706970214844 7.454925537109375 0 0 0
60.6529541015625 -21.477767944335938 7.1777801513671875 0 0 0
61.1529541015625 -21.477767944335938 7.11859130859375 0 0 0
61.6529541015625 -21.477767944335938 7.067138671875 0 0 0
62.1529541015625 -21.477767944335938 7.046142578125 0 0 0
60.6529541015625 -26.363121032714844 9.954925537109375 0 0 0
60.6529541015625 -25.977767944335937 9.739837646484375 0 0 0
61.1529541015625 -26.326507568359375 9.954925537109375 0 0 0
61.1529541015625 -25.977767944335937 9.75701904296875 0 0 0
61.6529541015625 -26.332794189453125 9.954925537109375 0 0 0
61.6529541015625 -25.977767944335937 9.7399139404296875 0 0 0
62.1529541015625 -26.410667419433594 9.954925537109375 0 0 0
62.1529541015625 -25.977767944335937 9.69854736328125 0 0 0
60.6529541015625 -27.230758666992188 10.454925537109375 0 0 0
60.6529541015625 -26.977767944335938 10.310546875 0 0 0
60.1529541015625 -27.216087341308594 10.454925537109375 0 0 0
61.1529541015625 -27.205001831054687 10.454925537109375 0 0 0
61.1529541015625 -26.977767944335938 10.32598876953125 0 0 0
60.1529541015625 -27.477767944335938 10.616165161132813 0 0 0
60.6529541015625 -27.477767944335938 10.60357666015625 0 0 0
61.1529541015625 -27.477767944335938 10.614410400390625 0 0 0
61.6529541015625 -27.203422546386719 10.454925537109375 0 0 0
61.6529541015625 -26.977767944335938 10.329544067382812 0 0 0
62.1529541015625 -27.296646118164062 10.454925537109375 0 0 0
62.1529541015625 -26.977767944335938 10.279617309570312 0 0 0
